ncols 104
nrows 102
xllcenter 255202.08
yllcenter 378861
cellsize 20.00
NODATA_value -9999.000
-9999.000 -9999.000 -9999.000 -9999.000 -9999.000 -9999.000 -9999.000 1667.140 1680.229 1690.959 1695.478 1700.319 1700.083 1701.881 1700.306 1695.875 1697.962 1699.285 1701.701 1705.908 1707.047 1711.690 1698.140 1694.633 1697.450 1714.828 1724.210 1727.519 1728.126 1729.616 1732.259 1732.130 1734.208 1735.265 1736.797 1739.401 1740.372 1743.633 1742.338 1742.112 1740.142 1737.633 1738.993 1738.003 1734.704 1735.126 1736.069 1735.455 1738.986 1738.662 1738.696 1739.400 1735.151 1729.981 1722.394 1714.059 1696.616 1692.682 1689.420 1677.936 1660.059 1645.413 1632.070 -9999.000 -9999.000 -9999.000 -9999.000 -9999.000 -9999.000 -9999.000 -9999.000 -9999.000 -9999.000 -9999.000 -9999.000 -9999.000 -9999.000 -9999.000 -9999.000 -9999.000 -9999.000 -9999.000 -9999.000 -9999.000 -9999.000 -9999.000 -9999.000 -9999.000 -9999.000 -9999.000 -9999.000 -9999.000 -9999.000 -9999.000 -9999.000 -9999.000 -9999.000 -9999.000 -9999.000 -9999.000 -9999.000 -9999.000 -9999.000 -9999.000
-9999.000 -9999.000 -9999.000 -9999.000 -9999.000 -9999.000 1639.054 1659.702 1667.613 1675.091 1677.441 1684.314 1685.298 1686.172 1685.630 1684.291 1686.956 1688.419 1691.526 1693.723 1697.900 1702.086 1691.102 1682.633 1691.031 1704.486 1711.605 1715.039 1714.380 1717.858 1719.031 1718.353 1721.940 1721.617 1722.795 1725.153 1727.201 1731.364 1730.492 1727.329 1724.629 1723.541 1722.722 1721.477 1719.425 1720.722 1723.313 1722.690 1723.961 1723.788 1724.705 1727.509 1723.215 1718.131 1711.032 1686.094 1679.443 1673.900 1679.562 1669.766 1661.548 1649.854 1635.933 1626.443 -9999.000 -9999.000 -9999.000 -9999.000 -9999.000 -9999.000 -9999.000 -9999.000 -9999.000 -9999.000 -9999.000 -9999.000 -9999.000 -9999.000 -9999.000 -9999.000 -9999.000 -9999.000 -9999.000 -9999.000 -9999.000 -9999.000 -9999.000 -9999.000 -9999.000 -9999.000 -9999.000 -9999.000 -9999.000 -9999.000 -9999.000 -9999.000 -9999.000 -9999.000 -9999.000 -9999.000 -9999.000 -9999.000 -9999.000 -9999.000
-9999.000 -9999.000 -9999.000 -9999.000 -9999.000 -9999.000 1634.115 1649.508 1653.591 1657.335 1661.494 1664.881 1667.294 1670.084 1671.501 1671.782 1674.868 1676.555 1680.425 1681.878 1688.287 1691.410 1681.689 1670.899 1677.907 1688.538 1697.190 1702.763 1701.833 1704.897 1706.053 1706.249 1708.409 1708.740 1710.318 1712.691 1716.391 1719.336 1719.877 1715.236 1711.361 1710.090 1708.978 1707.919 1705.967 1708.724 1709.192 1709.611 1711.568 1711.630 1714.067 1715.627 1709.304 1703.956 1696.322 1677.096 1663.162 1659.450 1657.383 1659.627 1652.217 1642.578 1633.989 1623.533 -9999.000 -9999.000 -9999.000 -9999.000 -9999.000 -9999.000 -9999.000 -9999.000 -9999.000 -9999.000 -9999.000 -9999.000 -9999.000 -9999.000 -9999.000 -9999.000 -9999.000 -9999.000 -9999.000 -9999.000 -9999.000 -9999.000 -9999.000 -9999.000 -9999.000 -9999.000 -9999.000 -9999.000 -9999.000 -9999.000 -9999.000 -9999.000 -9999.000 -9999.000 -9999.000 -9999.000 -9999.000 -9999.000 -9999.000 -9999.000
-9999.000 -9999.000 -9999.000 -9999.000 -9999.000 -9999.000 1631.638 1639.724 1641.005 1643.739 1646.902 1650.401 1654.037 1657.508 1658.797 1661.144 1664.377 1665.904 1669.967 1673.413 1678.270 1679.839 1672.667 1663.184 1662.559 1674.204 1688.019 1689.865 1690.971 1691.752 1692.211 1694.445 1695.031 1696.116 1698.085 1700.917 1705.469 1708.174 1707.151 1704.324 1698.671 1696.347 1695.824 1694.160 1693.778 1695.716 1697.040 1697.713 1699.350 1701.582 1703.442 1705.174 1696.089 1688.039 1679.710 1661.383 1649.832 1644.002 1640.645 1641.491 1646.523 1634.902 1624.746 1616.287 -9999.000 -9999.000 -9999.000 -9999.000 -9999.000 -9999.000 -9999.000 -9999.000 -9999.000 -9999.000 -9999.000 -9999.000 -9999.000 -9999.000 -9999.000 -9999.000 -9999.000 -9999.000 -9999.000 -9999.000 -9999.000 -9999.000 -9999.000 -9999.000 -9999.000 -9999.000 -9999.000 -9999.000 -9999.000 -9999.000 -9999.000 -9999.000 -9999.000 -9999.000 -9999.000 -9999.000 -9999.000 -9999.000 -9999.000 -9999.000
-9999.000 -9999.000 -9999.000 -9999.000 -9999.000 1611.971 1625.453 1627.970 1627.851 1630.529 1633.841 1638.734 1640.963 1644.735 1646.517 1650.160 1652.514 1655.539 1657.633 1663.480 1668.768 1669.586 1657.114 1650.172 1649.823 1663.349 1677.736 1678.471 1678.369 1678.844 1681.389 1682.374 1682.884 1683.572 1686.675 1691.099 1694.083 1696.587 1696.161 1692.317 1687.818 1683.759 1683.161 1681.618 1681.370 1682.810 1684.573 1686.677 1688.798 1690.747 1691.791 1692.340 1690.779 1673.004 1662.627 1646.302 1639.490 1631.368 1625.059 1626.036 1632.340 1631.935 1619.586 1606.204 1597.553 -9999.000 -9999.000 -9999.000 -9999.000 -9999.000 -9999.000 -9999.000 -9999.000 -9999.000 -9999.000 -9999.000 -9999.000 -9999.000 -9999.000 -9999.000 -9999.000 -9999.000 -9999.000 -9999.000 -9999.000 -9999.000 -9999.000 -9999.000 -9999.000 -9999.000 -9999.000 -9999.000 -9999.000 -9999.000 -9999.000 -9999.000 -9999.000 -9999.000 -9999.000 -9999.000 -9999.000 -9999.000 -9999.000 -9999.000
-9999.000 -9999.000 -9999.000 -9999.000 -9999.000 1606.703 1615.745 1616.363 1615.897 1618.561 1621.779 1626.212 1629.663 1632.560 1635.484 1638.753 1642.006 1644.988 1648.410 1653.043 1659.202 1655.977 1646.838 1638.403 1639.520 1654.774 1666.437 1666.374 1666.569 1667.000 1668.928 1670.999 1669.850 1671.988 1676.428 1680.996 1683.459 1684.494 1684.133 1680.391 1677.521 1671.945 1669.906 1668.773 1668.971 1670.656 1671.899 1675.412 1677.558 1678.942 1679.376 1680.769 1680.941 1671.659 1650.068 1631.715 1626.312 1617.806 1611.049 1610.891 1616.807 1625.542 1616.849 1606.102 1595.522 -9999.000 -9999.000 -9999.000 -9999.000 -9999.000 -9999.000 -9999.000 -9999.000 -9999.000 -9999.000 -9999.000 -9999.000 -9999.000 -9999.000 -9999.000 -9999.000 -9999.000 -9999.000 -9999.000 -9999.000 -9999.000 -9999.000 -9999.000 -9999.000 -9999.000 -9999.000 -9999.000 -9999.000 -9999.000 -9999.000 -9999.000 -9999.000 -9999.000 -9999.000 -9999.000 -9999.000 -9999.000 -9999.000 -9999.000
-9999.000 -9999.000 -9999.000 -9999.000 -9999.000 1599.037 1604.479 1604.869 1604.983 1606.571 1609.788 1613.921 1617.516 1620.678 1624.603 1628.511 1631.515 1634.332 1637.789 1644.784 1648.286 1642.732 1632.509 1627.574 1629.306 1643.990 1654.930 1654.198 1654.298 1655.544 1657.852 1659.165 1659.151 1661.299 1665.176 1669.401 1671.979 1672.855 1672.386 1668.740 1664.873 1660.714 1657.965 1657.043 1657.192 1657.397 1659.655 1664.598 1666.008 1666.564 1668.894 1670.293 1669.746 1663.042 1651.228 1618.131 1611.184 1607.346 1598.989 1596.314 1600.564 1615.692 1613.330 1603.514 1593.198 -9999.000 -9999.000 -9999.000 -9999.000 -9999.000 -9999.000 -9999.000 -9999.000 -9999.000 -9999.000 -9999.000 -9999.000 -9999.000 -9999.000 -9999.000 -9999.000 -9999.000 -9999.000 -9999.000 -9999.000 -9999.000 -9999.000 -9999.000 -9999.000 -9999.000 -9999.000 -9999.000 -9999.000 -9999.000 -9999.000 -9999.000 -9999.000 -9999.000 -9999.000 -9999.000 -9999.000 -9999.000 -9999.000 -9999.000
-9999.000 -9999.000 -9999.000 -9999.000 1578.117 1588.455 1593.308 1593.763 1593.659 1595.153 1598.596 1602.905 1606.119 1609.797 1613.404 1617.038 1621.072 1622.022 1629.095 1635.439 1636.815 1630.903 1616.144 1617.205 1622.658 1642.280 1645.471 1643.272 1641.911 1644.660 1647.349 1647.319 1647.871 1650.309 1654.167 1657.956 1659.610 1660.776 1660.642 1658.129 1654.722 1649.620 1645.476 1644.275 1644.232 1645.091 1647.071 1651.303 1654.050 1654.628 1658.123 1660.557 1658.500 1644.728 1634.435 1613.005 1597.377 1593.896 1584.853 1582.594 1588.838 1597.463 1605.188 1601.078 1592.331 1579.536 -9999.000 -9999.000 -9999.000 -9999.000 -9999.000 -9999.000 -9999.000 -9999.000 -9999.000 -9999.000 -9999.000 -9999.000 -9999.000 -9999.000 -9999.000 -9999.000 -9999.000 -9999.000 -9999.000 -9999.000 -9999.000 -9999.000 -9999.000 -9999.000 -9999.000 -9999.000 -9999.000 -9999.000 -9999.000 -9999.000 -9999.000 -9999.000 -9999.000 -9999.000 -9999.000 -9999.000 -9999.000 -9999.000
-9999.000 -9999.000 -9999.000 -9999.000 1567.875 1579.173 1581.651 1582.769 1582.061 1583.961 1587.715 1592.234 1594.562 1598.561 1602.574 1605.966 1609.992 1614.160 1619.982 1625.079 1628.042 1620.253 1605.473 1608.024 1616.771 1628.101 1634.025 1632.490 1631.550 1633.590 1634.100 1635.858 1637.190 1639.525 1643.872 1647.229 1648.414 1648.931 1649.385 1647.249 1642.886 1637.887 1633.399 1631.879 1631.770 1631.482 1634.866 1638.913 1641.172 1642.795 1646.061 1648.403 1646.185 1638.258 1622.676 1609.579 1585.893 1578.713 1571.420 1569.503 1575.804 1585.201 1590.406 1601.295 1592.961 1582.059 -9999.000 -9999.000 -9999.000 -9999.000 -9999.000 -9999.000 -9999.000 -9999.000 -9999.000 -9999.000 -9999.000 -9999.000 -9999.000 -9999.000 -9999.000 -9999.000 -9999.000 -9999.000 -9999.000 -9999.000 -9999.000 -9999.000 -9999.000 -9999.000 -9999.000 -9999.000 -9999.000 -9999.000 -9999.000 -9999.000 -9999.000 -9999.000 -9999.000 -9999.000 -9999.000 -9999.000 -9999.000 -9999.000
-9999.000 -9999.000 -9999.000 -9999.000 1561.984 1569.337 1571.003 1571.616 1570.752 1572.889 1577.466 1581.283 1584.432 1587.774 1592.665 1595.792 1599.130 1605.194 1611.305 1613.357 1618.788 1610.253 1595.549 1600.301 1605.207 1620.244 1622.728 1620.893 1620.678 1622.610 1623.659 1624.728 1626.652 1628.904 1632.385 1635.416 1636.618 1637.755 1638.348 1636.496 1631.393 1627.441 1622.181 1619.371 1619.831 1618.643 1623.065 1627.032 1629.713 1631.833 1635.898 1636.784 1633.412 1622.268 1616.818 1593.364 1580.792 1566.325 1561.151 1558.209 1564.897 1568.498 1574.840 1591.772 1594.489 1582.238 -9999.000 -9999.000 -9999.000 -9999.000 -9999.000 -9999.000 -9999.000 -9999.000 -9999.000 -9999.000 -9999.000 -9999.000 -9999.000 -9999.000 -9999.000 -9999.000 -9999.000 -9999.000 -9999.000 -9999.000 -9999.000 -9999.000 -9999.000 -9999.000 -9999.000 -9999.000 -9999.000 -9999.000 -9999.000 -9999.000 -9999.000 -9999.000 -9999.000 -9999.000 -9999.000 -9999.000 -9999.000 -9999.000
-9999.000 -9999.000 -9999.000 1540.527 1554.336 1558.490 1560.405 1560.644 1560.132 1562.606 1566.578 1570.366 1573.663 1577.612 1582.553 1584.869 1589.605 1595.765 1601.488 1603.747 1609.228 1602.714 1585.451 1588.937 1596.555 1607.528 1611.815 1610.384 1609.749 1611.681 1613.887 1613.945 1615.145 1618.327 1622.228 1624.666 1626.531 1627.422 1627.010 1625.277 1621.069 1616.787 1611.010 1606.851 1606.904 1607.199 1611.731 1615.297 1618.520 1620.806 1625.164 1626.885 1622.984 1607.464 1601.213 1585.001 1566.438 1555.571 1548.158 1543.925 1549.246 1552.524 1566.788 1574.799 1577.694 1582.066 1572.714 -9999.000 -9999.000 -9999.000 -9999.000 -9999.000 -9999.000 -9999.000 -9999.000 -9999.000 -9999.000 -9999.000 -9999.000 -9999.000 -9999.000 -9999.000 -9999.000 -9999.000 -9999.000 -9999.000 -9999.000 -9999.000 -9999.000 -9999.000 -9999.000 -9999.000 -9999.000 -9999.000 -9999.000 -9999.000 -9999.000 -9999.000 -9999.000 -9999.000 -9999.000 -9999.000 -9999.000 -9999.000
-9999.000 -9999.000 -9999.000 1532.839 1544.450 1548.293 1549.772 1549.727 1549.644 1552.327 1555.127 1559.474 1562.250 1567.902 1572.557 1574.729 1579.896 1586.457 1590.074 1594.048 1597.969 1591.944 1576.193 1576.042 1583.807 1594.432 1601.201 1599.697 1599.761 1601.172 1602.631 1602.858 1605.015 1607.902 1611.248 1613.145 1614.784 1614.967 1616.086 1613.906 1609.539 1606.130 1600.082 1594.674 1594.038 1593.797 1600.165 1602.996 1604.262 1610.418 1614.780 1615.394 1614.605 1597.394 1584.704 1571.800 1554.352 1542.755 1533.948 1530.462 1530.610 1545.634 1555.056 1556.165 1561.637 1566.198 1575.159 -9999.000 -9999.000 -9999.000 -9999.000 -9999.000 -9999.000 -9999.000 -9999.000 -9999.000 -9999.000 -9999.000 -9999.000 -9999.000 -9999.000 -9999.000 -9999.000 -9999.000 -9999.000 -9999.000 -9999.000 -9999.000 -9999.000 -9999.000 -9999.000 -9999.000 -9999.000 -9999.000 -9999.000 -9999.000 -9999.000 -9999.000 -9999.000 -9999.000 -9999.000 -9999.000 -9999.000 -9999.000
-9999.000 -9999.000 -9999.000 1528.667 1534.489 1538.286 1539.371 1539.539 1538.965 1541.127 1544.368 1547.939 1552.304 1557.902 1561.087 1564.752 1572.124 1577.413 1579.112 1584.274 1586.845 1585.327 1567.560 1565.909 1572.275 1583.969 1591.041 1588.870 1589.003 1589.971 1591.658 1591.360 1594.179 1597.448 1600.172 1602.797 1603.530 1604.043 1604.459 1603.153 1598.526 1592.845 1589.137 1582.971 1581.659 1582.425 1588.346 1591.599 1593.765 1600.924 1604.461 1604.351 1602.599 1591.982 1574.904 1561.735 1546.127 1529.082 1523.245 1514.832 1529.891 1532.808 1544.610 1540.373 1548.454 1551.658 1565.014 1567.975 -9999.000 -9999.000 -9999.000 -9999.000 -9999.000 -9999.000 -9999.000 -9999.000 -9999.000 -9999.000 -9999.000 -9999.000 -9999.000 -9999.000 -9999.000 -9999.000 -9999.000 -9999.000 -9999.000 -9999.000 -9999.000 -9999.000 -9999.000 -9999.000 -9999.000 -9999.000 -9999.000 -9999.000 -9999.000 -9999.000 -9999.000 -9999.000 -9999.000 -9999.000 -9999.000 -9999.000
-9999.000 -9999.000 1510.901 1519.616 1525.154 1527.885 1529.042 1529.215 1527.989 1530.291 1533.436 1537.795 1542.664 1547.693 1550.387 1555.161 1561.565 1566.737 1569.882 1573.810 1575.362 1574.515 1561.787 1555.064 1561.977 1575.803 1580.545 1578.613 1579.088 1578.768 1580.126 1581.316 1584.081 1586.706 1589.508 1590.770 1591.610 1592.437 1592.770 1591.423 1587.694 1582.511 1577.184 1571.077 1568.046 1570.570 1576.854 1578.610 1584.958 1591.043 1594.120 1593.283 1591.829 1584.925 1566.638 1550.948 1538.917 1526.580 1509.379 1504.369 1516.182 1521.534 1534.418 1524.215 1533.417 1538.485 1549.840 1555.572 -9999.000 -9999.000 -9999.000 -9999.000 -9999.000 -9999.000 -9999.000 -9999.000 -9999.000 -9999.000 -9999.000 -9999.000 -9999.000 -9999.000 -9999.000 -9999.000 -9999.000 -9999.000 -9999.000 -9999.000 -9999.000 -9999.000 -9999.000 -9999.000 -9999.000 -9999.000 -9999.000 -9999.000 -9999.000 -9999.000 -9999.000 -9999.000 -9999.000 -9999.000 -9999.000 -9999.000
-9999.000 -9999.000 1502.400 1510.349 1515.419 1517.419 1518.767 1517.880 1513.711 1518.139 1522.873 1527.781 1533.943 1537.309 1540.338 1547.544 1552.250 1555.950 1560.680 1562.822 1565.015 1559.353 1549.759 1544.467 1551.466 1565.988 1570.527 1568.712 1567.985 1569.431 1569.601 1569.417 1572.794 1576.169 1578.377 1580.035 1580.390 1580.576 1581.957 1580.862 1576.097 1571.702 1564.503 1559.070 1555.465 1559.416 1564.411 1568.532 1572.071 1580.300 1582.739 1581.221 1579.960 1575.432 1559.731 1542.482 1526.620 1515.011 1500.865 1492.345 1496.652 1510.861 1512.016 1508.932 1514.768 1527.693 1534.192 1545.524 -9999.000 -9999.000 -9999.000 -9999.000 -9999.000 -9999.000 -9999.000 -9999.000 -9999.000 -9999.000 -9999.000 -9999.000 -9999.000 -9999.000 -9999.000 -9999.000 -9999.000 -9999.000 -9999.000 -9999.000 -9999.000 -9999.000 -9999.000 -9999.000 -9999.000 -9999.000 -9999.000 -9999.000 -9999.000 -9999.000 -9999.000 -9999.000 -9999.000 -9999.000 -9999.000 -9999.000
-9999.000 -9999.000 1494.440 1501.214 1505.278 1507.577 1507.086 1503.386 1500.437 1506.928 1512.334 1518.232 1524.267 1526.169 1531.181 1538.171 1542.783 1545.828 1550.419 1552.325 1554.156 1545.299 1536.810 1533.888 1545.260 1560.219 1559.832 1559.297 1556.559 1557.357 1558.421 1559.097 1562.175 1564.448 1567.394 1568.375 1569.814 1568.999 1568.505 1568.674 1564.799 1560.340 1553.266 1546.718 1542.703 1548.916 1552.379 1556.625 1559.124 1568.384 1569.673 1568.639 1567.243 1563.543 1557.296 1544.760 1525.361 1507.409 1491.597 1482.077 1485.143 1497.147 1499.272 1496.142 1508.183 1518.670 1526.139 1535.948 1533.082 -9999.000 -9999.000 -9999.000 -9999.000 -9999.000 -9999.000 -9999.000 -9999.000 -9999.000 -9999.000 -9999.000 -9999.000 -9999.000 -9999.000 -9999.000 -9999.000 -9999.000 -9999.000 -9999.000 -9999.000 -9999.000 -9999.000 -9999.000 -9999.000 -9999.000 -9999.000 -9999.000 -9999.000 -9999.000 -9999.000 -9999.000 -9999.000 -9999.000 -9999.000 -9999.000
-9999.000 1478.367 1485.722 1492.179 1495.841 1497.292 1495.331 1490.161 1488.873 1495.064 1500.914 1507.581 1513.505 1516.340 1522.584 1528.869 1532.719 1537.273 1540.472 1542.137 1544.529 1533.387 1523.353 1525.452 1545.543 1549.522 1549.116 1547.898 1545.242 1546.854 1548.331 1548.530 1552.108 1554.542 1556.392 1557.722 1557.793 1554.602 1552.036 1553.557 1552.931 1547.497 1542.586 1533.780 1531.159 1536.346 1542.850 1543.752 1547.902 1548.604 1554.170 1554.530 1553.499 1551.523 1546.629 1537.323 1518.303 1501.524 1484.684 1469.573 1475.291 1486.599 1482.000 1486.115 1498.672 1510.480 1525.471 1523.056 1521.068 -9999.000 -9999.000 -9999.000 -9999.000 -9999.000 -9999.000 -9999.000 -9999.000 -9999.000 -9999.000 -9999.000 -9999.000 -9999.000 -9999.000 -9999.000 -9999.000 -9999.000 -9999.000 -9999.000 -9999.000 -9999.000 -9999.000 -9999.000 -9999.000 -9999.000 -9999.000 -9999.000 -9999.000 -9999.000 -9999.000 -9999.000 -9999.000 -9999.000 -9999.000 -9999.000
-9999.000 1469.455 1477.771 1482.834 1485.542 1485.490 1482.590 1477.284 1477.529 1484.807 1490.000 1497.562 1501.701 1506.890 1514.247 1518.452 1522.729 1527.950 1530.259 1532.490 1534.618 1525.009 1511.293 1524.755 1538.041 1538.960 1538.797 1538.187 1534.733 1536.160 1537.204 1538.351 1541.082 1543.802 1545.346 1546.423 1546.066 1537.119 1535.057 1538.609 1540.887 1535.391 1531.705 1523.047 1519.244 1524.202 1532.089 1534.790 1533.381 1531.034 1540.627 1539.012 1538.353 1539.072 1534.894 1540.123 1524.385 1515.597 1471.146 1460.455 1461.816 1467.529 1465.069 1476.987 1494.682 1511.763 1511.572 1505.729 1508.500 -9999.000 -9999.000 -9999.000 -9999.000 -9999.000 -9999.000 -9999.000 -9999.000 -9999.000 -9999.000 -9999.000 -9999.000 -9999.000 -9999.000 -9999.000 -9999.000 -9999.000 -9999.000 -9999.000 -9999.000 -9999.000 -9999.000 -9999.000 -9999.000 -9999.000 -9999.000 -9999.000 -9999.000 -9999.000 -9999.000 -9999.000 -9999.000 -9999.000 -9999.000 -9999.000
-9999.000 1461.621 1468.740 1472.905 1472.280 1472.696 1468.697 1463.750 1466.446 1472.294 1480.029 1487.587 1491.565 1499.551 1505.488 1509.426 1514.842 1518.287 1520.069 1522.488 1524.324 1516.243 1500.217 1518.118 1527.209 1528.470 1528.248 1527.973 1525.388 1525.683 1526.350 1529.055 1530.841 1533.133 1534.147 1535.005 1535.668 1524.920 1518.014 1515.980 1526.386 1523.549 1519.471 1510.537 1507.972 1513.889 1522.454 1522.594 1516.734 1516.393 1530.417 1525.449 1524.705 1526.573 1523.372 1529.817 1529.879 1523.134 1450.915 1450.249 1451.095 1450.278 1462.596 1475.097 1488.104 1488.855 1489.907 1489.266 1490.221 1493.223 -9999.000 -9999.000 -9999.000 -9999.000 -9999.000 -9999.000 -9999.000 -9999.000 -9999.000 -9999.000 -9999.000 -9999.000 -9999.000 -9999.000 -9999.000 -9999.000 -9999.000 -9999.000 -9999.000 -9999.000 -9999.000 -9999.000 -9999.000 -9999.000 -9999.000 -9999.000 -9999.000 -9999.000 -9999.000 -9999.000 -9999.000 -9999.000 -9999.000 -9999.000
1446.140 1453.771 1459.324 1463.013 1458.190 1458.948 1454.948 1449.641 1455.211 1463.836 1471.262 1477.257 1483.557 1491.174 1495.587 1501.344 1505.356 1507.795 1510.170 1512.618 1510.123 1506.023 1490.002 1505.181 1518.557 1518.389 1517.764 1518.240 1515.432 1515.632 1517.347 1519.612 1520.883 1522.227 1523.603 1524.369 1524.767 1514.670 1502.982 1497.797 1501.698 1509.634 1507.393 1497.154 1495.987 1504.346 1508.460 1507.906 1481.838 1490.384 1511.054 1518.125 1510.641 1513.642 1514.492 1524.796 1509.929 1449.708 1432.240 1433.343 1431.655 1432.764 1450.404 1463.230 1469.015 1472.113 1472.712 1472.214 1472.970 1476.251 -9999.000 -9999.000 -9999.000 -9999.000 -9999.000 -9999.000 -9999.000 -9999.000 -9999.000 -9999.000 -9999.000 -9999.000 -9999.000 -9999.000 -9999.000 -9999.000 -9999.000 -9999.000 -9999.000 -9999.000 -9999.000 -9999.000 -9999.000 -9999.000 -9999.000 -9999.000 -9999.000 -9999.000 -9999.000 -9999.000 -9999.000 -9999.000 -9999.000 -9999.000
1438.494 1444.943 1449.363 1450.893 1444.209 1445.393 1441.099 1436.139 1447.044 1452.482 1457.618 1467.195 1476.535 1482.284 1487.236 1491.918 1495.599 1497.890 1500.557 1502.947 1497.280 1490.535 1480.345 1496.086 1508.787 1508.488 1507.820 1507.668 1506.740 1505.754 1507.905 1509.181 1510.355 1512.436 1512.700 1514.086 1514.619 1506.525 1490.298 1481.306 1481.066 1484.794 1490.323 1484.149 1485.664 1490.491 1490.440 1492.240 1456.495 1465.855 1474.065 1500.441 1496.457 1501.571 1505.189 1504.155 1486.730 1424.445 1415.969 1415.216 1411.700 1410.017 1409.537 1427.145 1434.574 1454.154 1455.988 1456.042 1457.773 1462.253 -9999.000 -9999.000 -9999.000 -9999.000 -9999.000 -9999.000 -9999.000 -9999.000 -9999.000 -9999.000 -9999.000 -9999.000 -9999.000 -9999.000 -9999.000 -9999.000 -9999.000 -9999.000 -9999.000 -9999.000 -9999.000 -9999.000 -9999.000 -9999.000 -9999.000 -9999.000 -9999.000 -9999.000 -9999.000 -9999.000 -9999.000 -9999.000 -9999.000 -9999.000
1428.535 1433.478 1435.738 1437.303 1430.704 1432.192 1426.753 1427.423 1435.792 1438.802 1446.690 1460.229 1468.331 1471.730 1478.506 1483.066 1486.113 1488.702 1491.276 1493.526 1484.178 1473.485 1470.870 1485.584 1497.603 1499.066 1498.618 1497.862 1496.705 1494.824 1498.337 1498.997 1499.760 1501.291 1502.151 1502.765 1501.823 1501.143 1480.162 1465.504 1460.814 1463.756 1476.383 1471.870 1476.468 1471.360 1469.574 1467.070 1427.936 1439.611 1446.205 1464.108 1474.128 1469.964 1456.055 1445.088 1415.545 1410.129 1401.727 1396.869 1395.648 1392.987 1389.160 1387.364 1413.985 1432.500 1438.634 1440.365 1442.505 1446.198 1445.635 -9999.000 -9999.000 -9999.000 -9999.000 -9999.000 -9999.000 -9999.000 -9999.000 -9999.000 -9999.000 -9999.000 -9999.000 -9999.000 -9999.000 -9999.000 -9999.000 -9999.000 -9999.000 -9999.000 -9999.000 -9999.000 -9999.000 -9999.000 -9999.000 -9999.000 -9999.000 -9999.000 -9999.000 -9999.000 -9999.000 -9999.000 -9999.000 -9999.000
1420.059 1418.073 1422.016 1424.011 1417.932 1417.849 1411.988 1416.991 1423.382 1429.332 1441.539 1453.885 1458.567 1462.571 1469.175 1473.482 1476.437 1479.458 1482.081 1484.058 1472.803 1462.633 1462.043 1473.826 1485.974 1489.173 1488.912 1488.155 1484.250 1483.326 1489.092 1488.813 1490.326 1490.878 1491.207 1491.794 1490.428 1490.127 1489.108 1454.219 1443.776 1450.986 1455.633 1458.740 1461.420 1449.834 1438.524 1425.630 1396.758 1397.530 1406.031 1408.529 1406.426 1421.361 1409.750 1419.472 1401.305 1395.472 1387.687 1379.771 1377.425 1374.390 1371.261 1367.533 1369.429 1387.967 1399.057 1409.375 1419.314 1426.221 1424.144 -9999.000 -9999.000 -9999.000 -9999.000 -9999.000 -9999.000 -9999.000 -9999.000 -9999.000 -9999.000 -9999.000 -9999.000 -9999.000 -9999.000 -9999.000 -9999.000 -9999.000 -9999.000 -9999.000 -9999.000 -9999.000 -9999.000 -9999.000 -9999.000 -9999.000 -9999.000 -9999.000 -9999.000 -9999.000 -9999.000 -9999.000 -9999.000 -9999.000
1406.989 1404.120 1411.055 1411.057 1404.867 1402.881 1398.140 1405.775 1411.207 1424.183 1438.297 1445.144 1447.641 1454.961 1460.465 1463.986 1466.933 1470.259 1472.628 1474.176 1466.777 1453.876 1453.003 1462.226 1475.683 1479.650 1479.478 1478.068 1473.970 1473.325 1479.622 1479.805 1479.791 1478.474 1478.913 1480.208 1478.658 1478.910 1472.623 1459.511 1428.313 1434.285 1437.586 1439.650 1449.505 1440.006 1424.586 1400.673 1387.503 1380.699 1386.487 1386.767 1389.937 1397.946 1405.341 1384.824 1383.787 1380.460 1375.231 1366.574 1361.557 1357.964 1354.372 1354.829 1353.897 1353.348 1371.195 1364.198 1363.495 1367.606 1381.210 -9999.000 -9999.000 -9999.000 -9999.000 -9999.000 -9999.000 -9999.000 -9999.000 -9999.000 -9999.000 -9999.000 -9999.000 -9999.000 -9999.000 -9999.000 -9999.000 -9999.000 -9999.000 -9999.000 -9999.000 -9999.000 -9999.000 -9999.000 -9999.000 -9999.000 -9999.000 -9999.000 -9999.000 -9999.000 -9999.000 -9999.000 -9999.000 -9999.000
1392.463 1391.317 1399.118 1398.859 1392.744 1387.819 1388.737 1394.927 1407.329 1420.965 1430.622 1433.726 1439.032 1446.560 1450.607 1454.362 1457.995 1461.121 1463.532 1464.679 1456.934 1444.136 1443.992 1452.841 1468.496 1470.486 1469.773 1467.779 1462.572 1463.192 1469.731 1470.417 1468.969 1465.148 1467.697 1468.599 1467.081 1467.928 1454.633 1432.421 1413.861 1415.941 1419.038 1420.445 1435.369 1425.679 1414.333 1389.641 1369.984 1361.282 1368.821 1370.453 1375.298 1384.750 1387.557 1377.709 1364.295 1365.208 1359.761 1352.926 1346.536 1344.135 1342.215 1345.214 1342.793 1340.348 1336.316 1338.113 1324.487 1326.952 1331.675 1338.981 -9999.000 -9999.000 -9999.000 -9999.000 -9999.000 -9999.000 -9999.000 -9999.000 -9999.000 -9999.000 -9999.000 -9999.000 -9999.000 -9999.000 -9999.000 -9999.000 -9999.000 -9999.000 -9999.000 -9999.000 -9999.000 -9999.000 -9999.000 -9999.000 -9999.000 -9999.000 -9999.000 -9999.000 -9999.000 -9999.000 -9999.000 -9999.000
1378.269 1379.644 1385.608 1385.447 1379.989 1374.826 1379.185 1392.733 1405.863 1414.062 1420.188 1425.212 1431.901 1436.584 1441.703 1444.874 1449.636 1453.005 1454.443 1454.750 1444.903 1434.137 1434.630 1443.577 1459.560 1461.057 1459.386 1455.593 1452.363 1453.705 1460.027 1459.661 1457.894 1452.498 1456.262 1456.646 1453.709 1456.694 1448.620 1420.981 1401.875 1398.965 1404.254 1410.716 1419.796 1410.541 1386.371 1369.653 1358.043 1344.307 1348.686 1355.979 1361.401 1363.271 1372.408 1367.328 1348.001 1347.147 1344.847 1340.337 1330.174 1330.658 1334.780 1334.122 1330.062 1324.738 1318.450 1311.848 1300.969 1304.981 1310.014 1330.146 -9999.000 -9999.000 -9999.000 -9999.000 -9999.000 -9999.000 -9999.000 -9999.000 -9999.000 -9999.000 -9999.000 -9999.000 -9999.000 -9999.000 -9999.000 -9999.000 -9999.000 -9999.000 -9999.000 -9999.000 -9999.000 -9999.000 -9999.000 -9999.000 -9999.000 -9999.000 -9999.000 -9999.000 -9999.000 -9999.000 -9999.000 -9999.000
1364.136 1367.571 1372.271 1371.484 1365.817 1362.616 1375.953 1389.249 1397.555 1404.895 1409.876 1415.714 1422.550 1427.905 1431.633 1435.718 1440.729 1444.075 1444.900 1443.901 1433.900 1425.160 1425.870 1435.933 1450.922 1451.141 1449.441 1444.531 1440.688 1444.514 1449.415 1447.860 1446.403 1441.517 1445.271 1443.789 1441.380 1444.619 1443.710 1410.534 1393.617 1381.861 1389.512 1392.771 1380.890 1381.516 1371.692 1355.097 1343.939 1333.367 1333.115 1341.744 1346.221 1344.957 1357.566 1370.107 1354.768 1326.101 1317.725 1318.352 1309.129 1308.207 1319.618 1317.918 1313.782 1304.867 1294.915 1293.799 1283.937 1290.825 1297.202 1323.943 -9999.000 -9999.000 -9999.000 -9999.000 -9999.000 -9999.000 -9999.000 -9999.000 -9999.000 -9999.000 -9999.000 -9999.000 -9999.000 -9999.000 -9999.000 -9999.000 -9999.000 -9999.000 -9999.000 -9999.000 -9999.000 -9999.000 -9999.000 -9999.000 -9999.000 -9999.000 -9999.000 -9999.000 -9999.000 -9999.000 -9999.000 -9999.000
1350.947 1354.874 1358.186 1356.721 1351.924 1356.722 1370.407 1381.687 1389.295 1392.776 1400.909 1407.497 1412.807 1418.738 1421.848 1427.395 1432.260 1434.080 1434.179 1430.687 1422.932 1415.423 1416.658 1431.914 1441.216 1441.225 1438.628 1433.060 1430.578 1435.594 1438.529 1436.193 1436.568 1430.108 1433.927 1431.352 1430.388 1432.498 1420.085 1398.422 1382.051 1365.555 1369.831 1358.676 1363.182 1352.993 1356.768 1343.732 1331.917 1321.957 1315.747 1327.217 1323.301 1321.396 1351.259 1335.777 1337.846 1323.521 1294.035 1292.976 1282.109 1297.591 1300.507 1293.378 1286.268 1285.137 1270.495 1268.036 1267.597 1268.961 1283.835 1296.915 1314.797 -9999.000 -9999.000 -9999.000 -9999.000 -9999.000 -9999.000 -9999.000 -9999.000 -9999.000 -9999.000 -9999.000 -9999.000 -9999.000 -9999.000 -9999.000 -9999.000 -9999.000 -9999.000 -9999.000 -9999.000 -9999.000 -9999.000 -9999.000 -9999.000 -9999.000 -9999.000 -9999.000 -9999.000 -9999.000 -9999.000 -9999.000
1337.336 1342.802 1343.961 1341.030 1340.201 1350.901 1363.780 1375.132 1377.902 1383.783 1391.008 1397.471 1404.007 1408.993 1413.034 1419.261 1422.542 1423.924 1423.078 1418.085 1408.003 1406.403 1408.804 1425.827 1430.816 1431.271 1427.937 1422.657 1421.211 1427.011 1427.596 1424.016 1427.225 1419.609 1422.617 1419.694 1418.666 1417.758 1412.665 1398.933 1377.686 1356.726 1342.899 1336.152 1339.898 1322.867 1332.575 1333.147 1319.864 1310.939 1295.401 1301.576 1306.734 1302.068 1302.206 1310.143 1317.219 1308.401 1292.873 1270.604 1256.698 1268.324 1280.858 1274.564 1265.631 1258.637 1248.201 1251.503 1251.848 1261.352 1266.513 1286.368 1298.446 -9999.000 -9999.000 -9999.000 -9999.000 -9999.000 -9999.000 -9999.000 -9999.000 -9999.000 -9999.000 -9999.000 -9999.000 -9999.000 -9999.000 -9999.000 -9999.000 -9999.000 -9999.000 -9999.000 -9999.000 -9999.000 -9999.000 -9999.000 -9999.000 -9999.000 -9999.000 -9999.000 -9999.000 -9999.000 -9999.000 -9999.000
1322.909 1329.509 1328.711 1328.154 1332.103 1345.445 1357.939 1362.063 1366.128 1376.378 1382.539 1388.350 1395.137 1399.494 1404.912 1409.290 1412.260 1413.103 1411.395 1406.482 1396.784 1396.344 1401.196 1414.932 1420.179 1420.500 1417.724 1413.602 1411.507 1418.368 1418.286 1412.216 1414.626 1408.646 1411.192 1407.904 1407.298 1402.018 1399.763 1398.910 1380.221 1358.967 1337.930 1320.355 1312.129 1307.937 1304.022 1308.558 1307.883 1299.263 1282.805 1286.148 1287.061 1284.362 1291.821 1292.332 1288.836 1271.774 1269.906 1253.516 1243.338 1260.269 1267.293 1256.740 1255.090 1244.093 1233.142 1235.380 1236.473 1244.473 1262.851 1279.538 1309.401 -9999.000 -9999.000 -9999.000 -9999.000 -9999.000 -9999.000 -9999.000 -9999.000 -9999.000 -9999.000 -9999.000 -9999.000 -9999.000 -9999.000 -9999.000 -9999.000 -9999.000 -9999.000 -9999.000 -9999.000 -9999.000 -9999.000 -9999.000 -9999.000 -9999.000 -9999.000 -9999.000 -9999.000 -9999.000 -9999.000 -9999.000
1310.274 1316.388 1314.781 1316.240 1326.282 1338.816 1345.689 1349.309 1360.980 1367.268 1373.065 1379.641 1385.901 1391.002 1395.333 1398.971 1400.922 1401.860 1401.271 1396.702 1386.060 1386.230 1390.872 1405.686 1408.411 1409.263 1406.870 1403.576 1402.869 1409.225 1411.470 1401.758 1402.192 1399.163 1399.881 1396.835 1396.592 1390.771 1388.008 1386.941 1375.237 1350.600 1336.314 1322.115 1300.052 1292.286 1287.515 1290.980 1288.163 1289.101 1273.021 1268.270 1270.574 1266.814 1270.213 1267.817 1261.191 1247.525 1232.833 1224.573 1237.809 1249.097 1250.608 1244.063 1238.690 1229.511 1218.128 1221.275 1229.211 1232.360 1246.120 1275.360 1288.724 1288.807 -9999.000 -9999.000 -9999.000 -9999.000 -9999.000 -9999.000 -9999.000 -9999.000 -9999.000 -9999.000 -9999.000 -9999.000 -9999.000 -9999.000 -9999.000 -9999.000 -9999.000 -9999.000 -9999.000 -9999.000 -9999.000 -9999.000 -9999.000 -9999.000 -9999.000 -9999.000 -9999.000 -9999.000 -9999.000 -9999.000
1296.780 1302.534 1302.297 1306.413 1319.410 1327.847 1333.333 1346.441 1353.124 1358.803 1364.450 1370.450 1376.538 1381.184 1384.523 1387.479 1389.523 1389.798 1389.052 1386.542 1378.140 1375.493 1383.336 1394.973 1396.507 1396.803 1396.009 1393.625 1393.919 1400.577 1402.052 1393.652 1390.152 1389.173 1388.075 1386.069 1385.639 1380.591 1377.152 1376.109 1372.514 1350.089 1330.288 1313.512 1297.747 1279.521 1272.000 1268.344 1265.234 1266.743 1258.800 1254.799 1255.113 1253.034 1253.643 1256.033 1241.820 1232.783 1217.965 1215.177 1229.637 1236.472 1239.266 1227.114 1218.775 1218.138 1204.138 1203.792 1211.928 1218.427 1221.439 1235.444 1245.608 1266.748 -9999.000 -9999.000 -9999.000 -9999.000 -9999.000 -9999.000 -9999.000 -9999.000 -9999.000 -9999.000 -9999.000 -9999.000 -9999.000 -9999.000 -9999.000 -9999.000 -9999.000 -9999.000 -9999.000 -9999.000 -9999.000 -9999.000 -9999.000 -9999.000 -9999.000 -9999.000 -9999.000 -9999.000 -9999.000 -9999.000
1284.132 1287.989 1290.686 1298.678 1308.000 1318.876 1332.261 1340.056 1344.962 1349.625 1354.829 1361.502 1366.337 1370.944 1373.100 1376.020 1377.903 1376.660 1376.212 1377.166 1369.174 1365.113 1374.701 1382.881 1384.531 1383.451 1384.775 1384.606 1384.646 1390.854 1391.143 1384.554 1378.338 1378.191 1376.994 1375.232 1373.914 1370.733 1366.942 1365.571 1364.666 1351.081 1330.594 1311.304 1293.441 1276.575 1260.223 1249.249 1246.252 1245.059 1248.982 1232.714 1241.753 1240.150 1236.781 1239.012 1226.673 1217.913 1200.163 1205.789 1216.971 1226.483 1226.958 1213.934 1205.768 1203.825 1195.990 1192.315 1199.093 1204.535 1204.849 1212.973 1230.264 1246.467 -9999.000 -9999.000 -9999.000 -9999.000 -9999.000 -9999.000 -9999.000 -9999.000 -9999.000 -9999.000 -9999.000 -9999.000 -9999.000 -9999.000 -9999.000 -9999.000 -9999.000 -9999.000 -9999.000 -9999.000 -9999.000 -9999.000 -9999.000 -9999.000 -9999.000 -9999.000 -9999.000 -9999.000 -9999.000 -9999.000
1272.007 1275.406 1282.143 1291.908 1306.469 1319.472 1326.775 1331.658 1336.184 1340.318 1346.339 1352.036 1356.211 1359.834 1361.873 1364.782 1365.831 1363.794 1363.722 1368.551 1361.307 1355.244 1364.097 1370.797 1372.751 1370.523 1376.273 1377.443 1375.165 1381.308 1380.530 1374.050 1368.508 1368.292 1365.629 1365.686 1361.490 1360.812 1357.518 1355.194 1352.360 1349.144 1326.144 1307.993 1289.667 1274.843 1259.712 1246.172 1228.812 1228.194 1227.326 1221.623 1220.527 1224.848 1221.872 1229.263 1210.504 1199.598 1193.336 1193.637 1206.202 1225.140 1218.678 1201.382 1191.754 1186.586 1175.537 1175.292 1180.760 1189.314 1185.073 1200.717 1224.594 1242.578 1244.726 -9999.000 -9999.000 -9999.000 -9999.000 -9999.000 -9999.000 -9999.000 -9999.000 -9999.000 -9999.000 -9999.000 -9999.000 -9999.000 -9999.000 -9999.000 -9999.000 -9999.000 -9999.000 -9999.000 -9999.000 -9999.000 -9999.000 -9999.000 -9999.000 -9999.000 -9999.000 -9999.000 -9999.000 -9999.000
1261.528 1269.505 1276.768 1291.426 1305.439 1312.197 1317.608 1322.825 1326.666 1331.667 1337.769 1342.126 1345.620 1348.646 1350.704 1351.973 1354.816 1352.254 1356.964 1359.198 1353.394 1346.477 1352.652 1360.445 1360.981 1359.318 1366.951 1368.920 1365.143 1371.001 1369.834 1363.130 1359.752 1358.848 1356.531 1356.384 1352.099 1350.290 1347.904 1345.083 1341.032 1341.168 1325.989 1312.128 1310.480 1309.257 1272.688 1252.646 1234.467 1212.083 1208.286 1214.013 1207.134 1199.405 1210.352 1215.936 1208.113 1192.402 1173.780 1186.218 1198.227 1208.093 1195.532 1190.990 1179.089 1170.267 1159.280 1160.516 1165.249 1173.594 1173.892 1196.334 1221.203 1232.253 1233.248 -9999.000 -9999.000 -9999.000 -9999.000 -9999.000 -9999.000 -9999.000 -9999.000 -9999.000 -9999.000 -9999.000 -9999.000 -9999.000 -9999.000 -9999.000 -9999.000 -9999.000 -9999.000 -9999.000 -9999.000 -9999.000 -9999.000 -9999.000 -9999.000 -9999.000 -9999.000 -9999.000 -9999.000 -9999.000
1253.420 1261.907 1275.629 1289.518 1298.930 1305.257 1310.419 1313.810 1317.795 1323.010 1328.659 1332.197 1334.993 1337.201 1338.094 1340.452 1343.329 1342.988 1349.019 1350.249 1349.458 1338.461 1341.109 1348.250 1348.566 1351.469 1356.412 1359.985 1356.254 1361.346 1359.258 1353.506 1350.795 1349.933 1347.966 1347.699 1344.051 1341.248 1339.375 1335.995 1329.979 1326.113 1324.267 1316.514 1302.210 1303.508 1277.238 1253.798 1238.907 1226.262 1190.755 1189.019 1185.786 1182.550 1188.633 1192.915 1178.755 1164.740 1165.547 1188.699 1183.484 1193.344 1179.757 1173.608 1164.930 1150.342 1137.572 1150.410 1153.193 1147.179 1163.876 1184.716 1203.062 1211.717 1215.479 -9999.000 -9999.000 -9999.000 -9999.000 -9999.000 -9999.000 -9999.000 -9999.000 -9999.000 -9999.000 -9999.000 -9999.000 -9999.000 -9999.000 -9999.000 -9999.000 -9999.000 -9999.000 -9999.000 -9999.000 -9999.000 -9999.000 -9999.000 -9999.000 -9999.000 -9999.000 -9999.000 -9999.000 -9999.000
1246.740 1260.265 1273.667 1285.369 1292.621 1298.036 1301.206 1304.782 1308.676 1314.148 1318.874 1321.510 1323.977 1325.121 1326.649 1329.972 1331.505 1335.491 1338.983 1341.245 1342.133 1330.242 1328.529 1335.714 1335.532 1341.134 1345.401 1350.196 1347.090 1352.526 1351.094 1343.755 1341.094 1341.351 1338.607 1340.038 1336.530 1332.654 1331.051 1327.539 1322.177 1315.591 1306.905 1310.668 1289.238 1269.060 1250.121 1232.837 1221.164 1205.112 1190.103 1170.230 1177.806 1175.864 1168.637 1179.647 1168.162 1147.281 1174.064 1179.852 1169.461 1171.797 1158.409 1154.464 1144.144 1134.727 1125.667 1134.455 1136.797 1136.931 1151.492 1168.614 1177.752 1188.754 1198.599 1208.875 -9999.000 -9999.000 -9999.000 -9999.000 -9999.000 -9999.000 -9999.000 -9999.000 -9999.000 -9999.000 -9999.000 -9999.000 -9999.000 -9999.000 -9999.000 -9999.000 -9999.000 -9999.000 -9999.000 -9999.000 -9999.000 -9999.000 -9999.000 -9999.000 -9999.000 -9999.000 -9999.000 -9999.000
1244.022 1258.361 1271.370 1280.641 1286.832 1287.149 1291.891 1294.753 1299.395 1304.617 1307.670 1310.830 1311.729 1312.908 1312.704 1318.483 1323.198 1327.487 1330.581 1332.715 1332.799 1324.721 1318.642 1322.600 1325.007 1329.728 1335.299 1338.283 1338.555 1344.849 1342.918 1334.744 1332.551 1332.498 1330.172 1329.660 1329.668 1324.544 1323.172 1320.294 1314.783 1305.979 1291.700 1296.010 1285.526 1270.199 1248.064 1229.770 1214.199 1196.760 1178.781 1164.127 1161.375 1162.388 1150.182 1161.966 1148.754 1140.347 1160.445 1167.901 1158.061 1147.879 1141.609 1136.674 1130.612 1128.839 1111.435 1119.395 1121.072 1123.651 1137.602 1153.694 1163.636 1172.871 1188.115 1192.919 -9999.000 -9999.000 -9999.000 -9999.000 -9999.000 -9999.000 -9999.000 -9999.000 -9999.000 -9999.000 -9999.000 -9999.000 -9999.000 -9999.000 -9999.000 -9999.000 -9999.000 -9999.000 -9999.000 -9999.000 -9999.000 -9999.000 -9999.000 -9999.000 -9999.000 -9999.000 -9999.000 -9999.000
1243.151 1257.206 1267.029 1272.134 1274.619 1277.483 1282.556 1285.483 1288.763 1293.983 1296.694 1298.903 1298.840 1300.938 1302.619 1310.603 1315.425 1319.330 1322.410 1323.771 1323.778 1318.692 1311.290 1310.838 1315.716 1320.545 1325.332 1327.333 1330.997 1335.689 1336.147 1328.377 1324.327 1323.766 1321.696 1318.789 1318.523 1315.929 1315.523 1314.368 1306.629 1297.317 1279.676 1276.818 1271.635 1263.214 1244.057 1226.754 1210.489 1194.664 1178.512 1160.756 1142.603 1144.093 1136.667 1141.294 1122.280 1142.773 1143.541 1151.051 1150.174 1136.789 1126.792 1121.259 1116.782 1119.402 1105.162 1101.502 1098.044 1114.069 1127.331 1139.416 1146.781 1158.734 1166.772 1174.724 1174.154 -9999.000 -9999.000 -9999.000 -9999.000 -9999.000 -9999.000 -9999.000 -9999.000 -9999.000 -9999.000 -9999.000 -9999.000 -9999.000 -9999.000 -9999.000 -9999.000 -9999.000 -9999.000 -9999.000 -9999.000 -9999.000 -9999.000 -9999.000 -9999.000 -9999.000 -9999.000 -9999.000
1242.377 1251.933 1256.564 1261.175 1263.787 1268.026 1271.943 1275.398 1278.868 1284.419 1286.372 1286.525 1286.793 1290.023 1297.841 1302.536 1307.178 1311.033 1312.664 1313.733 1313.814 1310.860 1303.377 1301.518 1307.049 1312.848 1314.287 1318.415 1324.250 1326.304 1325.655 1318.264 1316.334 1315.419 1313.615 1309.960 1307.064 1306.635 1307.861 1308.680 1294.772 1283.513 1268.827 1259.256 1255.286 1248.922 1251.945 1232.934 1219.796 1204.827 1189.897 1162.390 1141.814 1125.599 1124.559 1117.956 1110.836 1128.098 1127.236 1131.902 1139.621 1131.159 1115.583 1109.117 1104.864 1104.862 1106.874 1085.941 1088.238 1103.329 1110.400 1123.069 1134.839 1143.367 1151.492 1159.054 1159.402 -9999.000 -9999.000 -9999.000 -9999.000 -9999.000 -9999.000 -9999.000 -9999.000 -9999.000 -9999.000 -9999.000 -9999.000 -9999.000 -9999.000 -9999.000 -9999.000 -9999.000 -9999.000 -9999.000 -9999.000 -9999.000 -9999.000 -9999.000 -9999.000 -9999.000 -9999.000 -9999.000
1235.590 1242.142 1248.044 1250.181 1251.880 1260.668 1264.007 1265.527 1270.216 1274.557 1274.510 1274.543 1278.416 1285.682 1291.532 1294.009 1299.256 1302.228 1304.193 1304.483 1304.425 1302.312 1300.675 1292.337 1296.338 1301.019 1305.372 1312.986 1315.497 1316.284 1313.680 1307.562 1308.052 1307.605 1305.602 1301.308 1293.732 1292.764 1294.482 1296.066 1283.388 1270.700 1260.335 1245.382 1240.300 1237.112 1243.427 1222.573 1215.155 1198.837 1182.275 1168.185 1150.960 1131.671 1115.928 1103.952 1096.917 1105.985 1111.978 1114.969 1123.618 1127.239 1112.505 1096.622 1093.029 1092.014 1095.039 1080.924 1080.544 1089.261 1096.850 1112.038 1122.080 1128.554 1139.784 1145.092 1146.865 -9999.000 -9999.000 -9999.000 -9999.000 -9999.000 -9999.000 -9999.000 -9999.000 -9999.000 -9999.000 -9999.000 -9999.000 -9999.000 -9999.000 -9999.000 -9999.000 -9999.000 -9999.000 -9999.000 -9999.000 -9999.000 -9999.000 -9999.000 -9999.000 -9999.000 -9999.000 -9999.000
1224.705 1231.855 1237.035 1237.734 1243.487 1253.142 1256.880 1257.198 1261.409 1262.814 1263.717 1267.738 1274.806 1278.733 1282.578 1287.369 1291.794 1293.871 1294.823 1296.141 1294.626 1293.872 1293.850 1286.120 1284.443 1291.469 1300.913 1305.430 1305.818 1305.782 1303.188 1300.554 1300.565 1299.901 1297.055 1287.337 1277.398 1277.530 1280.877 1280.382 1269.761 1259.457 1249.122 1234.635 1227.118 1226.459 1227.853 1209.569 1199.481 1192.998 1168.824 1155.659 1142.337 1126.397 1112.281 1105.927 1093.109 1093.975 1095.935 1106.551 1108.401 1113.753 1101.193 1087.780 1081.634 1079.975 1083.769 1075.806 1067.583 1075.087 1085.857 1099.902 1108.291 1113.979 1125.872 1128.988 1133.505 1141.923 -9999.000 -9999.000 -9999.000 -9999.000 -9999.000 -9999.000 -9999.000 -9999.000 -9999.000 -9999.000 -9999.000 -9999.000 -9999.000 -9999.000 -9999.000 -9999.000 -9999.000 -9999.000 -9999.000 -9999.000 -9999.000 -9999.000 -9999.000 -9999.000 -9999.000 -9999.000
1215.399 1222.980 1224.375 1227.329 1236.104 1246.537 1251.704 1250.665 1251.692 1253.102 1257.235 1262.135 1268.446 1271.194 1276.048 1280.904 1283.643 1285.429 1286.151 1288.771 1286.620 1284.242 1284.194 1279.160 1277.706 1285.230 1291.448 1293.507 1294.012 1295.707 1294.837 1293.174 1294.329 1286.970 1278.720 1269.564 1263.273 1261.833 1271.153 1271.406 1256.351 1246.971 1232.672 1222.964 1216.105 1220.591 1215.478 1199.293 1185.342 1177.251 1166.079 1149.303 1134.952 1122.068 1107.650 1100.141 1092.461 1083.247 1085.779 1097.027 1091.399 1100.422 1096.790 1080.015 1071.262 1070.560 1073.635 1071.186 1053.062 1063.709 1073.656 1084.275 1091.299 1099.172 1109.766 1113.324 1125.208 1126.482 -9999.000 -9999.000 -9999.000 -9999.000 -9999.000 -9999.000 -9999.000 -9999.000 -9999.000 -9999.000 -9999.000 -9999.000 -9999.000 -9999.000 -9999.000 -9999.000 -9999.000 -9999.000 -9999.000 -9999.000 -9999.000 -9999.000 -9999.000 -9999.000 -9999.000 -9999.000
1206.394 1213.526 1213.088 1218.828 1230.269 1241.374 1246.090 1246.651 1245.458 1248.085 1251.868 1257.939 1261.544 1264.112 1269.675 1273.603 1274.989 1276.583 1278.968 1280.825 1278.713 1275.744 1273.998 1268.080 1272.676 1278.137 1280.151 1280.435 1282.169 1286.734 1288.360 1284.924 1280.406 1270.826 1264.817 1254.886 1250.143 1248.167 1257.319 1260.324 1251.128 1233.568 1221.038 1209.570 1204.222 1211.733 1216.056 1203.412 1177.826 1163.063 1156.723 1150.471 1133.820 1118.462 1106.151 1095.873 1087.763 1077.285 1076.977 1076.695 1076.636 1080.523 1080.854 1078.296 1063.181 1061.214 1063.919 1064.125 1044.803 1051.433 1063.588 1068.691 1074.419 1084.596 1094.872 1102.613 1118.707 1111.722 -9999.000 -9999.000 -9999.000 -9999.000 -9999.000 -9999.000 -9999.000 -9999.000 -9999.000 -9999.000 -9999.000 -9999.000 -9999.000 -9999.000 -9999.000 -9999.000 -9999.000 -9999.000 -9999.000 -9999.000 -9999.000 -9999.000 -9999.000 -9999.000 -9999.000 -9999.000
1199.412 1201.149 1203.347 1213.741 1226.382 1234.137 1240.898 1245.406 1248.152 1244.078 1246.989 1251.520 1253.871 1258.744 1262.535 1264.830 1266.710 1268.567 1271.900 1272.974 1270.411 1268.711 1264.850 1261.435 1268.500 1269.821 1269.261 1270.680 1272.915 1277.563 1276.784 1270.399 1265.660 1257.944 1252.458 1245.907 1236.330 1234.153 1241.651 1248.649 1241.188 1230.511 1212.891 1198.791 1194.104 1201.663 1203.126 1187.204 1171.985 1155.824 1143.577 1133.564 1122.173 1108.931 1097.919 1089.408 1081.615 1075.839 1067.595 1068.476 1066.861 1061.265 1064.939 1068.167 1054.985 1052.196 1054.272 1055.422 1041.147 1041.963 1051.997 1054.398 1060.431 1069.205 1086.673 1088.755 1097.104 1097.478 1094.399 -9999.000 -9999.000 -9999.000 -9999.000 -9999.000 -9999.000 -9999.000 -9999.000 -9999.000 -9999.000 -9999.000 -9999.000 -9999.000 -9999.000 -9999.000 -9999.000 -9999.000 -9999.000 -9999.000 -9999.000 -9999.000 -9999.000 -9999.000 -9999.000 -9999.000
-9999.000 1189.615 1196.925 1209.283 1219.992 1226.468 1233.864 1238.663 1241.441 1238.766 1240.461 1244.322 1247.379 1252.678 1254.959 1256.521 1259.455 1262.090 1264.163 1265.346 1263.476 1260.626 1257.408 1254.624 1261.702 1261.727 1261.539 1264.055 1265.830 1264.677 1261.019 1254.573 1247.574 1245.032 1239.631 1235.231 1224.390 1221.540 1229.996 1232.708 1226.099 1220.238 1207.330 1191.581 1183.544 1192.750 1195.655 1180.857 1166.055 1152.181 1136.838 1125.984 1113.896 1102.403 1091.960 1084.018 1076.971 1072.267 1066.828 1060.650 1058.617 1055.785 1051.375 1049.078 1045.604 1044.017 1045.869 1047.306 1032.156 1034.552 1039.018 1041.180 1045.969 1054.004 1069.521 1071.365 1079.227 1083.555 1079.881 -9999.000 -9999.000 -9999.000 -9999.000 -9999.000 -9999.000 -9999.000 -9999.000 -9999.000 -9999.000 -9999.000 -9999.000 -9999.000 -9999.000 -9999.000 -9999.000 -9999.000 -9999.000 -9999.000 -9999.000 -9999.000 -9999.000 -9999.000 -9999.000 -9999.000
-9999.000 1182.796 1192.963 1204.632 1213.890 1219.575 1225.854 1229.479 1231.080 1230.799 1234.635 1238.056 1242.586 1245.121 1247.057 1249.569 1252.919 1256.492 1257.517 1258.633 1256.557 1253.233 1249.170 1248.361 1254.250 1255.254 1255.288 1254.601 1251.506 1249.798 1246.919 1240.939 1233.419 1230.928 1223.841 1220.925 1214.976 1208.049 1217.341 1217.152 1212.474 1207.307 1197.293 1184.803 1173.819 1186.484 1193.954 1177.595 1163.440 1148.291 1138.441 1124.564 1112.740 1100.976 1090.428 1081.928 1074.389 1069.225 1064.054 1057.729 1051.991 1050.880 1046.740 1042.189 1040.218 1035.664 1038.868 1036.732 1027.131 1027.477 1027.311 1029.827 1031.961 1037.400 1049.929 1053.696 1069.209 1070.279 1065.662 -9999.000 -9999.000 -9999.000 -9999.000 -9999.000 -9999.000 -9999.000 -9999.000 -9999.000 -9999.000 -9999.000 -9999.000 -9999.000 -9999.000 -9999.000 -9999.000 -9999.000 -9999.000 -9999.000 -9999.000 -9999.000 -9999.000 -9999.000 -9999.000 -9999.000
-9999.000 1179.614 1192.497 1203.026 1209.331 1213.780 1217.594 1219.069 1221.977 1226.231 1230.275 1232.977 1235.251 1241.982 1242.345 1245.156 1247.626 1250.417 1251.932 1250.186 1248.888 1246.052 1240.045 1244.612 1248.154 1246.837 1243.128 1241.163 1238.448 1238.015 1235.404 1228.814 1221.653 1218.579 1212.295 1207.481 1203.669 1195.695 1205.224 1203.770 1199.781 1196.613 1184.279 1172.520 1165.647 1178.048 1182.705 1181.115 1168.764 1157.177 1144.922 1132.262 1117.017 1105.774 1097.820 1088.645 1078.940 1068.993 1061.791 1056.187 1050.933 1043.096 1039.631 1039.160 1035.867 1030.137 1030.615 1031.214 1022.568 1015.105 1018.082 1018.077 1018.419 1023.226 1032.797 1042.844 1057.062 1057.293 1051.319 1048.261 -9999.000 -9999.000 -9999.000 -9999.000 -9999.000 -9999.000 -9999.000 -9999.000 -9999.000 -9999.000 -9999.000 -9999.000 -9999.000 -9999.000 -9999.000 -9999.000 -9999.000 -9999.000 -9999.000 -9999.000 -9999.000 -9999.000 -9999.000 -9999.000
-9999.000 1180.658 1192.689 1197.347 1202.713 1207.957 1210.121 1213.518 1218.396 1220.398 1223.739 1225.280 1232.191 1233.271 1235.385 1239.519 1241.623 1243.343 1243.165 1242.161 1243.315 1240.219 1231.605 1236.778 1235.835 1232.977 1232.838 1228.837 1225.205 1224.196 1221.642 1219.140 1213.461 1207.301 1203.040 1194.328 1188.684 1184.033 1192.244 1190.881 1187.700 1185.222 1171.661 1159.731 1159.294 1172.531 1169.156 1170.514 1175.374 1161.129 1147.225 1136.148 1127.220 1120.686 1111.925 1102.701 1090.491 1078.334 1064.665 1053.788 1047.989 1044.045 1039.885 1033.983 1026.232 1024.835 1022.444 1023.377 1018.550 1009.862 1010.234 1009.358 1005.565 1011.286 1018.976 1034.355 1040.802 1046.271 1039.036 1037.148 -9999.000 -9999.000 -9999.000 -9999.000 -9999.000 -9999.000 -9999.000 -9999.000 -9999.000 -9999.000 -9999.000 -9999.000 -9999.000 -9999.000 -9999.000 -9999.000 -9999.000 -9999.000 -9999.000 -9999.000 -9999.000 -9999.000 -9999.000 -9999.000
-9999.000 1180.554 1187.045 1191.481 1195.997 1200.907 1205.556 1210.742 1212.795 1215.421 1218.347 1221.364 1225.733 1227.487 1230.725 1233.944 1236.633 1237.132 1236.208 1237.795 1237.791 1236.907 1225.355 1222.979 1222.079 1219.993 1220.903 1215.150 1211.392 1209.614 1207.426 1205.643 1201.273 1195.640 1193.634 1185.594 1176.438 1173.640 1179.664 1178.379 1176.515 1174.056 1161.720 1146.897 1151.792 1160.852 1154.223 1160.423 1165.551 1160.984 1158.497 1153.166 1147.078 1139.167 1129.251 1114.273 1101.314 1089.187 1070.740 1055.101 1046.659 1042.588 1040.625 1037.372 1029.503 1018.988 1015.550 1014.907 1013.111 1011.852 1001.420 1002.973 999.835 1001.305 1006.609 1016.203 1027.446 1037.588 1028.318 1027.040 -9999.000 -9999.000 -9999.000 -9999.000 -9999.000 -9999.000 -9999.000 -9999.000 -9999.000 -9999.000 -9999.000 -9999.000 -9999.000 -9999.000 -9999.000 -9999.000 -9999.000 -9999.000 -9999.000 -9999.000 -9999.000 -9999.000 -9999.000 -9999.000
-9999.000 1176.988 1181.615 1187.126 1191.801 1197.652 1201.796 1203.696 1208.236 1211.722 1210.619 1216.423 1219.252 1222.921 1226.419 1230.777 1233.814 1232.322 1232.527 1229.503 1227.996 1222.033 1218.673 1213.263 1207.009 1206.360 1206.579 1202.930 1198.443 1195.592 1193.522 1191.841 1188.452 1184.534 1180.925 1178.575 1168.153 1164.150 1168.479 1167.767 1166.377 1165.391 1153.482 1136.246 1136.042 1141.038 1141.670 1147.020 1152.512 1148.313 1148.584 1146.295 1141.965 1137.045 1133.537 1125.801 1109.479 1090.323 1075.274 1060.595 1049.892 1044.490 1040.512 1038.878 1032.543 1026.830 1017.727 1009.153 1003.682 1003.466 1002.833 994.688 997.092 993.577 994.947 1006.354 1017.491 1025.854 1019.345 1018.371 1022.351 -9999.000 -9999.000 -9999.000 -9999.000 -9999.000 -9999.000 -9999.000 -9999.000 -9999.000 -9999.000 -9999.000 -9999.000 -9999.000 -9999.000 -9999.000 -9999.000 -9999.000 -9999.000 -9999.000 -9999.000 -9999.000 -9999.000 -9999.000
-9999.000 1171.011 1178.551 1184.441 1188.088 1193.027 1196.211 1202.743 1204.456 1206.246 1203.640 1209.839 1213.473 1219.974 1222.921 1224.759 1226.952 1225.198 1222.259 1215.085 1211.017 1205.416 1198.932 1182.726 1177.117 1188.979 1190.656 1190.067 1185.923 1183.096 1181.085 1179.389 1176.811 1173.689 1167.084 1167.627 1159.424 1154.570 1158.797 1158.907 1157.454 1158.138 1147.168 1129.990 1120.539 1124.816 1128.165 1137.194 1139.883 1136.830 1139.187 1136.759 1131.469 1126.975 1121.177 1116.269 1110.932 1099.820 1085.447 1074.075 1060.618 1054.763 1056.078 1053.786 1047.609 1039.916 1037.527 1024.982 1004.321 996.666 995.596 991.082 996.026 996.499 994.587 1002.049 1012.360 1017.759 1010.149 1010.901 1015.116 -9999.000 -9999.000 -9999.000 -9999.000 -9999.000 -9999.000 -9999.000 -9999.000 -9999.000 -9999.000 -9999.000 -9999.000 -9999.000 -9999.000 -9999.000 -9999.000 -9999.000 -9999.000 -9999.000 -9999.000 -9999.000 -9999.000 -9999.000
-9999.000 1169.764 1177.177 1182.789 1185.798 1189.877 1195.059 1200.247 1198.790 1200.207 1199.470 1204.853 1209.688 1211.550 1211.354 1213.006 1215.371 1210.832 1207.694 1200.405 1194.880 1189.633 1179.096 1163.146 1171.257 1177.230 1176.127 1175.820 1172.945 1170.255 1169.171 1166.912 1164.539 1162.537 1157.206 1156.760 1149.782 1145.205 1149.328 1150.137 1149.407 1150.861 1140.952 1124.646 1111.505 1109.512 1116.667 1124.115 1127.075 1125.171 1128.027 1125.340 1117.880 1114.620 1109.009 1106.974 1099.552 1098.500 1095.642 1087.796 1078.160 1074.448 1075.162 1076.661 1071.653 1066.077 1053.861 1026.017 1011.683 998.547 990.927 985.354 992.109 990.341 992.562 998.245 1001.074 1006.416 1001.002 1004.588 1010.396 -9999.000 -9999.000 -9999.000 -9999.000 -9999.000 -9999.000 -9999.000 -9999.000 -9999.000 -9999.000 -9999.000 -9999.000 -9999.000 -9999.000 -9999.000 -9999.000 -9999.000 -9999.000 -9999.000 -9999.000 -9999.000 -9999.000 -9999.000
-9999.000 1170.898 1175.994 1179.883 1182.754 1186.158 1190.281 1194.988 1194.732 1192.901 1194.835 1198.015 1200.611 1200.730 1200.619 1199.707 1198.115 1193.247 1188.953 1184.222 1180.195 1176.484 1168.293 1149.389 1159.374 1166.347 1164.577 1163.639 1161.260 1157.541 1156.947 1155.339 1153.219 1152.238 1149.212 1147.435 1143.713 1135.406 1141.029 1142.788 1142.607 1141.762 1136.111 1126.610 1112.575 1095.683 1103.690 1113.292 1118.725 1114.301 1115.372 1112.707 1105.827 1103.032 1097.557 1096.545 1088.737 1088.730 1084.810 1079.292 1074.666 1066.047 1070.280 1070.056 1066.722 1060.640 1043.814 1027.281 1004.944 994.367 988.121 982.637 982.236 986.232 987.834 983.854 989.364 996.975 992.345 997.349 1003.918 1015.062 -9999.000 -9999.000 -9999.000 -9999.000 -9999.000 -9999.000 -9999.000 -9999.000 -9999.000 -9999.000 -9999.000 -9999.000 -9999.000 -9999.000 -9999.000 -9999.000 -9999.000 -9999.000 -9999.000 -9999.000 -9999.000 -9999.000
-9999.000 1165.579 1170.087 1175.847 1177.705 1179.203 1182.268 1187.483 1191.262 1185.006 1186.731 1188.206 1188.864 1189.440 1190.424 1186.279 1182.803 1179.580 1175.133 1170.891 1166.989 1163.435 1156.530 1139.931 1146.166 1154.333 1153.425 1153.076 1151.018 1146.104 1145.985 1143.760 1142.311 1141.677 1140.175 1139.493 1134.865 1127.041 1133.194 1135.505 1134.882 1129.695 1126.280 1122.333 1109.653 1091.143 1086.683 1100.864 1106.564 1104.062 1103.626 1102.733 1097.996 1093.959 1087.658 1085.893 1075.725 1076.303 1072.008 1069.077 1062.981 1056.146 1052.282 1048.196 1043.377 1042.168 1034.526 1018.801 1001.391 988.061 983.460 980.344 977.113 978.496 981.307 977.218 982.613 989.882 986.112 991.214 995.024 1005.651 -9999.000 -9999.000 -9999.000 -9999.000 -9999.000 -9999.000 -9999.000 -9999.000 -9999.000 -9999.000 -9999.000 -9999.000 -9999.000 -9999.000 -9999.000 -9999.000 -9999.000 -9999.000 -9999.000 -9999.000 -9999.000 -9999.000
-9999.000 1159.133 1164.905 1168.573 1171.803 1173.576 1176.018 1177.016 1181.718 1182.641 1173.055 1175.469 1175.834 1178.094 1177.628 1174.612 1170.665 1167.895 1163.806 1159.523 1154.784 1151.087 1145.769 1132.653 1135.147 1145.417 1143.749 1143.565 1141.069 1135.688 1135.027 1132.672 1130.639 1131.096 1131.044 1129.171 1123.411 1117.497 1127.948 1128.763 1123.020 1119.498 1111.450 1111.005 1098.437 1081.764 1070.052 1086.132 1095.085 1093.612 1092.312 1089.733 1086.607 1080.588 1078.110 1067.704 1062.285 1057.406 1059.118 1056.318 1053.919 1048.631 1039.324 1033.353 1026.771 1023.267 1017.384 1010.860 997.113 983.297 978.106 975.046 974.945 967.451 976.517 975.368 972.008 978.278 975.685 984.889 987.481 998.264 -9999.000 -9999.000 -9999.000 -9999.000 -9999.000 -9999.000 -9999.000 -9999.000 -9999.000 -9999.000 -9999.000 -9999.000 -9999.000 -9999.000 -9999.000 -9999.000 -9999.000 -9999.000 -9999.000 -9999.000 -9999.000 -9999.000
-9999.000 1152.368 1157.783 1161.168 1164.642 1165.734 1168.901 1169.489 1170.630 1172.907 1174.382 1162.477 1164.027 1166.263 1166.710 1164.770 1159.961 1156.043 1151.661 1147.917 1143.314 1140.409 1136.404 1125.884 1128.113 1135.270 1134.485 1134.667 1130.286 1124.173 1125.406 1121.402 1119.250 1120.500 1121.297 1120.349 1113.413 1110.787 1123.693 1119.769 1114.715 1111.388 1100.368 1097.160 1085.116 1069.542 1061.818 1074.291 1081.754 1080.492 1078.701 1076.146 1074.031 1067.807 1062.865 1052.127 1047.131 1038.765 1040.407 1040.373 1037.586 1031.465 1026.268 1018.018 1010.877 1007.871 1005.215 996.753 993.160 981.922 973.381 970.415 971.905 967.606 964.971 970.723 967.205 966.897 968.448 979.268 981.656 991.331 996.931 -9999.000 -9999.000 -9999.000 -9999.000 -9999.000 -9999.000 -9999.000 -9999.000 -9999.000 -9999.000 -9999.000 -9999.000 -9999.000 -9999.000 -9999.000 -9999.000 -9999.000 -9999.000 -9999.000 -9999.000 -9999.000
-9999.000 1145.762 1150.379 1155.088 1157.725 1158.745 1160.738 1161.916 1160.920 1162.492 1167.481 1166.331 1153.781 1155.057 1155.129 1153.798 1150.075 1144.480 1141.087 1136.173 1132.597 1130.875 1128.999 1119.859 1117.189 1123.551 1124.930 1124.589 1119.803 1114.106 1112.122 1110.659 1108.127 1110.318 1110.647 1106.215 1099.341 1107.590 1114.271 1108.875 1102.950 1097.892 1091.414 1084.522 1073.753 1057.533 1049.407 1052.796 1059.891 1062.817 1054.651 1052.583 1051.711 1047.297 1042.242 1036.672 1029.534 1024.385 1021.575 1020.382 1017.198 1011.655 1007.487 999.655 995.391 992.607 988.159 983.470 981.613 975.799 968.274 966.023 966.681 965.636 960.197 964.045 964.125 961.269 963.779 972.590 975.832 984.678 988.421 -9999.000 -9999.000 -9999.000 -9999.000 -9999.000 -9999.000 -9999.000 -9999.000 -9999.000 -9999.000 -9999.000 -9999.000 -9999.000 -9999.000 -9999.000 -9999.000 -9999.000 -9999.000 -9999.000 -9999.000 -9999.000
-9999.000 1140.547 1141.588 1146.891 1149.400 1154.268 1153.058 1154.120 1154.050 1154.079 1157.575 1159.040 1155.247 1141.627 1144.175 1142.771 1142.263 1134.920 1130.145 1126.832 1123.301 1121.295 1121.301 1118.525 1105.484 1112.236 1115.782 1115.613 1114.247 1104.706 1101.522 1103.335 1097.806 1099.981 1098.090 1091.021 1088.433 1096.859 1099.805 1105.051 1092.694 1083.357 1081.480 1073.339 1065.635 1051.610 1040.763 1039.433 1042.382 1048.957 1041.542 1035.743 1034.267 1030.765 1024.449 1019.255 1015.883 1010.290 1005.492 1002.355 999.930 994.614 989.592 985.531 981.528 980.064 974.760 971.930 971.057 967.449 963.500 961.512 963.169 962.038 959.487 954.772 958.949 956.199 959.210 966.942 969.260 973.581 977.543 -9999.000 -9999.000 -9999.000 -9999.000 -9999.000 -9999.000 -9999.000 -9999.000 -9999.000 -9999.000 -9999.000 -9999.000 -9999.000 -9999.000 -9999.000 -9999.000 -9999.000 -9999.000 -9999.000 -9999.000 -9999.000
-9999.000 1130.661 1135.857 1137.965 1141.338 1144.448 1144.638 1147.592 1148.275 1146.816 1147.447 1147.077 1143.422 1139.181 1133.300 1132.056 1131.334 1125.354 1121.678 1118.293 1114.816 1112.990 1111.440 1109.263 1106.606 1104.622 1106.952 1107.323 1107.167 1097.885 1089.754 1094.564 1088.898 1089.155 1087.412 1079.507 1079.134 1083.626 1085.936 1090.904 1084.428 1073.345 1070.416 1068.990 1054.411 1049.628 1034.735 1029.646 1031.111 1034.717 1034.405 1023.875 1019.239 1018.279 1011.218 1004.632 1001.920 997.609 993.262 988.339 985.196 980.307 975.360 972.547 969.277 967.545 964.176 961.496 961.367 962.219 959.380 957.853 957.400 959.214 955.766 949.414 954.860 952.942 951.999 960.586 960.328 961.195 961.317 966.481 -9999.000 -9999.000 -9999.000 -9999.000 -9999.000 -9999.000 -9999.000 -9999.000 -9999.000 -9999.000 -9999.000 -9999.000 -9999.000 -9999.000 -9999.000 -9999.000 -9999.000 -9999.000 -9999.000 -9999.000
-9999.000 1121.550 1127.851 1130.245 1131.681 1135.445 1135.888 1138.962 1139.587 1138.365 1137.085 1135.765 1132.936 1132.669 1129.738 1122.827 1121.098 1116.376 1111.946 1109.288 1105.770 1104.351 1103.577 1101.740 1097.858 1098.521 1100.054 1098.750 1098.382 1092.954 1081.171 1084.588 1082.907 1080.523 1078.396 1069.586 1066.602 1069.889 1072.636 1075.825 1075.307 1066.789 1057.490 1058.342 1048.379 1043.569 1035.942 1024.513 1020.007 1025.032 1029.529 1017.956 1007.524 1007.096 1001.146 994.692 989.344 986.650 982.700 977.010 975.645 968.534 964.484 968.160 960.028 959.463 957.644 953.110 953.194 954.517 954.354 953.267 952.768 955.824 953.142 950.384 946.296 947.998 948.819 954.874 953.227 953.074 954.387 957.689 -9999.000 -9999.000 -9999.000 -9999.000 -9999.000 -9999.000 -9999.000 -9999.000 -9999.000 -9999.000 -9999.000 -9999.000 -9999.000 -9999.000 -9999.000 -9999.000 -9999.000 -9999.000 -9999.000 -9999.000
-9999.000 1114.235 1120.917 1122.335 1121.074 1122.343 1124.163 1125.424 1126.275 1124.844 1121.634 1118.299 1117.035 1117.211 1118.199 1117.878 1114.661 1109.024 1104.118 1101.379 1098.406 1097.034 1097.215 1096.369 1091.534 1091.591 1091.520 1089.713 1089.349 1085.765 1075.862 1072.611 1072.660 1071.026 1073.030 1059.586 1050.931 1057.307 1058.793 1060.178 1060.108 1058.455 1047.539 1047.955 1042.995 1032.554 1034.503 1024.456 1014.333 1014.185 1019.927 1015.362 1003.286 995.184 992.663 989.434 977.185 973.059 970.266 966.687 965.101 960.257 955.948 961.327 953.827 951.555 953.213 946.937 946.557 947.854 950.163 950.262 949.604 950.857 950.295 947.210 940.375 944.610 944.592 949.049 948.166 946.638 947.115 950.581 -9999.000 -9999.000 -9999.000 -9999.000 -9999.000 -9999.000 -9999.000 -9999.000 -9999.000 -9999.000 -9999.000 -9999.000 -9999.000 -9999.000 -9999.000 -9999.000 -9999.000 -9999.000 -9999.000 -9999.000
-9999.000 1107.755 1111.992 1112.155 1110.120 1110.389 1110.536 1109.857 1108.550 1106.605 1104.697 1103.168 1104.511 1107.932 1110.508 1111.309 1110.016 1108.323 1099.991 1095.829 1092.544 1091.382 1090.452 1089.271 1087.061 1083.782 1081.824 1081.549 1079.486 1079.665 1071.483 1061.627 1063.187 1062.511 1061.239 1052.885 1040.389 1041.782 1045.943 1043.322 1043.509 1042.956 1040.316 1034.879 1032.828 1022.789 1023.676 1019.801 1013.458 1007.790 1009.066 1006.956 1003.688 991.942 983.928 982.871 970.411 963.479 959.941 956.709 954.782 954.311 947.960 953.067 952.064 944.138 944.922 941.207 941.988 943.184 946.146 948.617 946.564 945.064 946.058 943.869 937.825 941.694 941.720 945.466 943.321 942.448 942.303 944.659 946.171 -9999.000 -9999.000 -9999.000 -9999.000 -9999.000 -9999.000 -9999.000 -9999.000 -9999.000 -9999.000 -9999.000 -9999.000 -9999.000 -9999.000 -9999.000 -9999.000 -9999.000 -9999.000 -9999.000
-9999.000 1100.572 1102.181 1101.747 1100.778 1099.489 1098.606 1096.943 1094.342 1093.935 1093.986 1097.071 1099.797 1102.596 1104.555 1104.885 1104.590 1102.388 1097.735 1092.755 1088.332 1085.681 1083.660 1081.908 1081.477 1076.538 1070.925 1068.215 1068.479 1068.560 1063.015 1054.768 1054.528 1049.574 1047.938 1042.032 1029.603 1030.828 1035.501 1032.702 1029.636 1027.176 1028.889 1024.602 1022.740 1016.118 1013.732 1015.648 1010.105 1000.048 998.507 997.381 993.756 987.874 979.169 975.817 970.525 957.322 952.544 949.972 947.857 949.859 941.468 945.840 947.624 941.133 937.749 935.562 937.432 938.219 940.488 942.021 942.005 940.138 941.302 940.706 932.457 933.952 937.718 937.455 938.202 936.864 936.378 937.448 937.772 -9999.000 -9999.000 -9999.000 -9999.000 -9999.000 -9999.000 -9999.000 -9999.000 -9999.000 -9999.000 -9999.000 -9999.000 -9999.000 -9999.000 -9999.000 -9999.000 -9999.000 -9999.000 -9999.000
-9999.000 1093.808 1093.724 1092.723 1093.495 1091.540 1089.933 1087.438 1085.593 1086.582 1090.203 1093.446 1096.194 1097.297 1097.780 1098.520 1098.209 1096.141 1093.943 1089.116 1084.353 1079.485 1077.060 1074.657 1073.565 1072.466 1066.001 1053.440 1055.597 1057.319 1053.624 1046.097 1040.761 1037.667 1036.301 1036.009 1021.462 1019.632 1022.064 1023.639 1017.013 1016.472 1014.138 1014.097 1011.083 1008.303 1005.281 1003.249 1000.714 992.965 989.492 985.979 983.827 978.505 973.592 967.554 965.147 953.500 945.712 943.044 941.119 940.273 936.442 938.598 940.655 936.629 932.022 931.096 932.904 933.166 935.225 937.016 937.856 936.092 937.236 936.651 931.886 927.908 931.753 932.614 933.225 931.965 933.056 931.101 930.128 929.908 -9999.000 -9999.000 -9999.000 -9999.000 -9999.000 -9999.000 -9999.000 -9999.000 -9999.000 -9999.000 -9999.000 -9999.000 -9999.000 -9999.000 -9999.000 -9999.000 -9999.000 -9999.000
-9999.000 1088.632 1088.803 1086.865 1087.598 1086.082 1085.125 1082.309 1081.451 1084.225 1087.480 1089.365 1091.113 1093.188 1092.213 1091.757 1092.583 1093.229 1087.134 1086.176 1080.471 1076.866 1071.579 1068.471 1064.869 1061.737 1056.632 1050.015 1047.591 1043.814 1041.693 1035.884 1026.913 1027.931 1025.497 1021.866 1016.739 1005.883 1006.862 1011.817 1008.604 1004.518 1001.846 1002.724 1001.280 998.910 996.879 993.135 991.720 987.820 973.409 971.211 972.052 968.807 964.727 957.722 955.177 950.754 939.818 936.898 935.732 933.247 931.656 933.409 932.524 928.953 925.802 927.310 927.834 929.300 928.957 930.554 932.825 932.090 931.718 933.815 932.382 928.992 923.692 929.666 928.251 928.611 927.978 925.184 923.010 923.155 -9999.000 -9999.000 -9999.000 -9999.000 -9999.000 -9999.000 -9999.000 -9999.000 -9999.000 -9999.000 -9999.000 -9999.000 -9999.000 -9999.000 -9999.000 -9999.000 -9999.000 -9999.000
-9999.000 1083.496 1083.193 1082.917 1083.545 1082.304 1081.145 1080.082 1079.690 1080.810 1083.810 1086.198 1086.978 1089.364 1087.994 1089.070 1088.642 1087.070 1085.929 1079.727 1077.969 1071.683 1066.651 1061.878 1056.319 1051.591 1047.831 1036.197 1038.389 1030.232 1028.177 1023.863 1014.729 1012.176 1013.379 1007.774 1006.700 997.194 992.671 997.224 997.014 993.717 990.766 990.850 988.368 985.467 984.495 980.786 979.505 972.083 963.047 961.382 957.842 954.091 949.344 946.004 943.796 946.519 936.721 931.689 930.124 928.757 926.900 926.938 924.796 921.351 921.710 922.684 924.439 925.092 924.337 925.061 927.036 928.049 927.044 927.396 929.365 919.769 924.251 926.411 924.859 924.754 924.195 922.896 920.120 916.868 -9999.000 -9999.000 -9999.000 -9999.000 -9999.000 -9999.000 -9999.000 -9999.000 -9999.000 -9999.000 -9999.000 -9999.000 -9999.000 -9999.000 -9999.000 -9999.000 -9999.000 -9999.000
-9999.000 1079.540 1079.088 1078.656 1079.614 1079.302 1078.594 1077.600 1077.838 1078.817 1080.348 1082.548 1083.704 1084.467 1085.848 1085.690 1085.631 1083.720 1080.223 1077.156 1073.490 1068.349 1063.155 1058.362 1055.256 1049.001 1032.482 1022.560 1017.131 1017.799 1015.017 1010.910 1002.602 994.119 993.424 995.242 993.970 989.089 982.366 982.194 982.307 982.767 979.027 978.100 975.139 971.195 969.604 968.352 964.572 959.144 954.395 954.374 950.072 943.931 940.016 937.561 935.655 937.057 935.218 927.121 925.211 923.467 922.180 921.223 918.961 917.191 917.151 918.077 920.034 920.700 919.733 920.716 921.549 924.526 923.471 923.838 921.699 915.523 922.414 922.184 921.701 922.994 922.500 920.506 916.989 914.504 913.399 -9999.000 -9999.000 -9999.000 -9999.000 -9999.000 -9999.000 -9999.000 -9999.000 -9999.000 -9999.000 -9999.000 -9999.000 -9999.000 -9999.000 -9999.000 -9999.000 -9999.000
-9999.000 1075.824 1075.478 1075.898 1075.619 1076.007 1075.237 1075.351 1075.474 1077.946 1079.304 1080.869 1082.270 1083.169 1084.279 1083.468 1081.029 1077.463 1074.081 1070.655 1066.176 1062.313 1057.392 1053.174 1049.443 1040.607 1019.238 1012.349 1008.144 1005.343 1001.287 998.773 994.358 985.539 980.818 980.604 979.494 979.062 973.064 971.816 971.888 972.217 970.579 968.235 963.842 960.906 956.817 955.370 952.630 949.134 948.510 947.513 945.797 940.577 935.867 932.215 930.022 928.473 928.286 923.210 920.906 920.093 917.747 915.843 913.872 913.196 913.203 913.591 915.430 917.020 916.660 916.948 917.781 918.730 919.913 920.269 921.526 910.862 919.175 917.172 918.450 920.089 919.914 917.056 913.327 910.540 905.410 -9999.000 -9999.000 -9999.000 -9999.000 -9999.000 -9999.000 -9999.000 -9999.000 -9999.000 -9999.000 -9999.000 -9999.000 -9999.000 -9999.000 -9999.000 -9999.000 -9999.000
-9999.000 1072.628 1072.383 1072.671 1072.469 1072.393 1072.429 1072.180 1074.668 1077.999 1077.589 1078.514 1078.969 1078.854 1078.236 1075.516 1072.875 1069.507 1066.503 1062.788 1059.016 1055.021 1051.340 1046.559 1041.826 1031.730 1015.613 1007.063 1000.990 997.359 992.957 985.535 982.954 977.488 971.736 968.543 969.449 966.607 965.042 964.218 962.918 961.377 959.410 956.861 952.822 949.007 946.723 944.531 942.486 940.455 941.955 941.982 940.594 937.660 933.951 929.625 926.120 922.863 920.419 917.208 917.243 914.211 911.640 910.297 909.417 909.077 909.351 909.420 910.049 911.520 912.858 912.583 914.149 913.870 915.840 917.479 916.437 908.193 910.359 914.061 913.638 915.367 915.108 913.245 909.748 906.974 904.326 -9999.000 -9999.000 -9999.000 -9999.000 -9999.000 -9999.000 -9999.000 -9999.000 -9999.000 -9999.000 -9999.000 -9999.000 -9999.000 -9999.000 -9999.000 -9999.000 -9999.000
-9999.000 1069.167 1068.887 1069.486 1068.452 1069.283 1068.375 1069.439 1071.410 1072.741 1073.659 1073.771 1073.742 1072.655 1070.209 1067.641 1064.533 1062.196 1058.895 1054.024 1050.843 1046.542 1044.073 1040.137 1034.755 1025.444 1014.517 1001.964 994.516 991.017 988.283 982.042 973.759 969.662 964.493 960.652 959.490 956.273 956.193 956.266 955.215 952.825 949.787 945.591 941.924 938.603 936.429 935.254 934.102 934.709 936.582 936.236 934.825 933.304 931.058 927.391 923.275 919.867 916.150 913.110 910.848 908.333 907.000 905.621 904.877 904.918 904.875 904.996 906.220 908.240 908.743 908.865 910.415 910.177 911.095 911.956 912.454 911.192 901.554 909.418 909.277 911.259 909.142 909.075 906.334 903.201 901.148 -9999.000 -9999.000 -9999.000 -9999.000 -9999.000 -9999.000 -9999.000 -9999.000 -9999.000 -9999.000 -9999.000 -9999.000 -9999.000 -9999.000 -9999.000 -9999.000 -9999.000
-9999.000 1064.242 1063.959 1063.651 1062.900 1063.365 1062.590 1063.311 1064.356 1066.086 1066.475 1065.187 1066.085 1065.177 1063.297 1060.061 1056.616 1054.144 1050.912 1046.864 1043.354 1039.751 1035.776 1032.783 1027.961 1019.929 1008.927 999.055 990.451 984.440 982.468 977.852 969.620 964.204 959.587 955.199 952.084 949.695 948.639 947.703 947.946 946.244 940.639 935.902 930.358 930.269 928.792 929.003 928.441 929.560 931.030 931.563 930.629 929.492 926.788 923.395 919.628 916.348 912.966 910.095 907.306 904.637 902.354 902.040 901.923 901.550 900.924 901.955 903.266 904.362 904.538 905.616 906.555 906.169 906.984 907.915 907.715 906.343 900.565 903.442 905.447 906.971 904.988 904.379 903.532 900.198 897.660 895.489 -9999.000 -9999.000 -9999.000 -9999.000 -9999.000 -9999.000 -9999.000 -9999.000 -9999.000 -9999.000 -9999.000 -9999.000 -9999.000 -9999.000 -9999.000 -9999.000
-9999.000 -9999.000 1057.227 1056.766 1055.603 1054.721 1054.295 1054.924 1056.079 1057.952 1057.276 1058.173 1057.720 1055.409 1054.331 1052.375 1048.676 1044.575 1042.253 1038.994 1035.488 1031.363 1028.256 1024.795 1021.715 1014.312 1005.721 992.453 984.130 978.161 976.957 974.036 967.597 961.077 956.001 951.457 947.550 944.784 942.959 942.209 940.597 938.458 934.728 929.977 925.073 923.773 923.419 923.459 923.718 925.213 926.441 926.735 926.451 925.795 922.797 919.690 917.198 913.397 910.130 906.882 903.943 901.375 899.279 898.151 898.346 899.170 898.141 898.698 899.037 900.332 901.548 901.727 903.504 902.661 902.846 903.734 903.089 902.830 897.182 893.057 902.029 904.303 902.710 902.111 899.050 897.632 894.711 893.303 -9999.000 -9999.000 -9999.000 -9999.000 -9999.000 -9999.000 -9999.000 -9999.000 -9999.000 -9999.000 -9999.000 -9999.000 -9999.000 -9999.000 -9999.000 -9999.000
-9999.000 -9999.000 1050.110 1048.881 1047.828 1047.502 1048.242 1047.454 1048.497 1048.837 1049.299 1047.675 1047.194 1045.524 1044.379 1042.493 1040.545 1038.436 1035.247 1030.787 1027.936 1024.499 1018.337 1007.041 1006.254 1000.975 992.837 983.064 975.632 971.327 970.422 969.334 965.168 958.407 952.663 948.384 944.394 939.979 937.280 936.006 934.938 932.586 930.324 925.553 921.050 918.575 918.380 919.062 918.289 919.992 922.559 923.023 921.751 920.672 918.289 916.586 913.974 910.710 908.796 903.266 901.226 899.065 897.348 896.098 895.812 895.784 894.468 895.432 895.744 896.773 898.390 898.134 899.930 898.863 899.813 899.088 898.688 900.039 896.788 892.906 897.485 900.215 900.318 898.784 896.634 894.499 892.354 890.991 -9999.000 -9999.000 -9999.000 -9999.000 -9999.000 -9999.000 -9999.000 -9999.000 -9999.000 -9999.000 -9999.000 -9999.000 -9999.000 -9999.000 -9999.000 -9999.000
-9999.000 -9999.000 1045.176 1044.317 1043.173 1042.897 1042.894 1042.468 1042.329 1041.258 1039.964 1039.562 1036.467 1035.009 1034.378 1032.729 1030.650 1027.655 1025.367 1023.119 1014.468 1008.862 1002.381 992.281 991.389 984.664 979.520 972.801 966.614 965.019 963.859 962.906 961.224 956.147 950.924 945.374 941.431 937.620 933.576 931.742 929.025 926.518 924.079 920.981 918.318 914.982 914.834 914.084 915.545 916.851 917.896 917.519 917.578 916.183 914.535 912.951 910.452 909.026 905.227 901.555 899.680 898.441 895.780 894.856 892.846 892.357 891.139 891.971 892.201 892.698 894.147 895.044 896.367 895.157 894.871 895.105 894.365 896.500 892.492 889.884 886.546 896.124 895.343 893.955 893.111 891.615 890.495 887.961 -9999.000 -9999.000 -9999.000 -9999.000 -9999.000 -9999.000 -9999.000 -9999.000 -9999.000 -9999.000 -9999.000 -9999.000 -9999.000 -9999.000 -9999.000 -9999.000
-9999.000 -9999.000 1041.839 1041.243 1040.217 1039.109 1038.047 1037.355 1037.097 1035.347 1032.824 1030.980 1028.453 1026.338 1025.000 1023.202 1019.388 1014.977 1011.337 1007.050 1000.511 994.173 988.604 982.016 975.506 972.667 966.866 962.641 957.532 958.404 957.844 956.956 955.577 952.436 948.667 943.211 938.365 934.078 931.113 927.774 924.309 921.474 918.630 916.710 914.085 912.341 910.969 911.504 912.078 913.019 914.352 913.874 913.027 912.436 911.624 910.363 908.303 906.236 902.210 900.435 898.111 896.593 894.408 892.042 890.717 888.882 889.457 888.316 887.041 888.429 890.489 891.207 892.421 891.587 891.677 891.642 890.617 890.931 887.939 891.207 881.532 889.403 890.681 889.854 888.595 887.982 887.718 885.977 884.027 -9999.000 -9999.000 -9999.000 -9999.000 -9999.000 -9999.000 -9999.000 -9999.000 -9999.000 -9999.000 -9999.000 -9999.000 -9999.000 -9999.000 -9999.000
-9999.000 -9999.000 1038.964 1038.052 1036.634 1035.203 1033.438 1031.171 1030.791 1028.080 1024.423 1022.369 1019.025 1016.675 1015.373 1011.560 1006.193 1002.418 998.534 994.277 988.524 981.796 977.806 971.023 962.830 961.278 957.150 953.316 950.083 951.729 951.795 951.216 949.878 947.545 944.412 940.151 935.357 931.147 927.635 924.474 922.232 918.933 916.462 913.384 911.154 908.935 907.892 908.099 908.881 909.985 910.720 910.375 908.908 908.047 907.183 905.793 904.473 903.011 900.603 898.467 896.593 893.326 891.841 888.861 887.630 885.308 885.568 885.549 884.022 884.651 886.156 887.143 888.437 887.475 887.127 886.977 886.586 887.173 885.442 887.711 881.832 881.712 887.736 886.639 887.232 884.858 883.559 882.968 882.415 -9999.000 -9999.000 -9999.000 -9999.000 -9999.000 -9999.000 -9999.000 -9999.000 -9999.000 -9999.000 -9999.000 -9999.000 -9999.000 -9999.000 -9999.000
-9999.000 -9999.000 1034.252 1032.257 1029.715 1028.413 1024.400 1019.318 1020.641 1015.942 1014.172 1011.911 1008.391 1005.639 1002.993 999.605 996.054 990.807 985.496 982.697 977.347 971.676 966.503 959.960 953.443 950.572 947.137 944.263 944.276 945.721 946.226 945.068 944.039 942.587 939.686 936.251 932.139 927.743 923.993 920.859 918.184 916.434 914.151 911.588 909.146 905.882 904.644 904.826 905.414 906.597 907.302 906.728 905.722 905.096 903.905 902.904 901.448 900.429 898.202 895.104 893.223 891.123 888.346 887.241 884.549 883.183 883.304 882.446 881.710 881.931 882.056 883.082 884.074 883.879 883.810 882.558 882.490 882.280 879.032 884.261 878.949 876.502 884.253 883.196 882.720 882.420 881.453 881.406 879.864 -9999.000 -9999.000 -9999.000 -9999.000 -9999.000 -9999.000 -9999.000 -9999.000 -9999.000 -9999.000 -9999.000 -9999.000 -9999.000 -9999.000 -9999.000
-9999.000 -9999.000 1021.901 1023.042 1019.544 1017.852 1013.668 1006.464 1008.265 1007.349 1003.683 1000.935 996.185 993.748 991.186 987.719 984.273 979.217 973.864 971.791 967.283 960.923 952.860 951.056 945.189 941.838 937.322 937.559 938.875 939.671 940.183 939.370 939.205 937.488 934.153 932.424 928.905 925.480 921.394 917.777 914.999 912.732 909.870 908.626 907.401 904.920 902.088 902.044 902.715 903.776 904.210 903.724 902.502 900.521 899.718 899.541 898.474 897.915 895.331 892.831 890.104 887.382 886.195 884.228 882.927 880.187 880.285 879.171 878.164 877.628 878.354 879.350 879.623 879.973 880.100 878.897 878.769 879.848 879.222 880.530 878.527 873.201 879.976 880.341 879.835 879.482 879.370 879.083 877.703 -9999.000 -9999.000 -9999.000 -9999.000 -9999.000 -9999.000 -9999.000 -9999.000 -9999.000 -9999.000 -9999.000 -9999.000 -9999.000 -9999.000 -9999.000
-9999.000 -9999.000 1010.395 1010.977 1007.596 1005.464 1003.808 997.305 996.697 997.404 991.519 986.231 985.209 981.718 976.800 975.881 972.181 967.761 963.901 960.508 957.603 950.294 943.107 942.097 936.235 934.586 931.508 932.628 933.554 934.348 935.085 934.514 934.279 933.451 931.476 928.109 924.914 921.526 919.038 914.998 911.894 909.116 906.767 904.090 902.469 903.171 901.160 899.621 900.547 901.034 901.759 900.708 898.874 897.853 897.298 897.799 895.144 894.463 892.069 889.859 888.108 885.469 883.885 882.445 881.850 878.052 873.968 875.743 875.417 875.474 875.882 876.593 876.411 877.387 876.329 875.961 874.870 876.070 878.055 876.557 873.039 871.985 876.650 876.813 877.358 877.004 876.906 877.785 876.483 876.246 -9999.000 -9999.000 -9999.000 -9999.000 -9999.000 -9999.000 -9999.000 -9999.000 -9999.000 -9999.000 -9999.000 -9999.000 -9999.000 -9999.000
-9999.000 -9999.000 1001.156 999.998 996.896 994.407 992.729 989.181 984.938 984.728 981.875 977.053 975.797 970.654 967.395 965.013 961.002 959.161 954.263 949.984 947.575 938.729 935.781 931.872 929.789 928.156 926.940 927.343 928.361 929.505 929.893 928.751 929.558 928.796 926.590 924.675 921.498 918.542 915.693 912.505 908.837 905.720 903.533 901.758 899.638 899.674 898.442 897.710 896.864 897.782 897.370 897.248 896.555 895.401 894.668 893.552 893.078 892.273 889.415 887.348 885.395 883.712 881.434 881.170 877.303 875.882 872.022 872.953 871.467 871.568 872.082 872.243 872.616 873.532 872.458 872.050 870.637 872.396 873.071 873.311 870.404 869.572 874.605 873.878 873.947 874.871 875.059 875.784 874.868 873.278 -9999.000 -9999.000 -9999.000 -9999.000 -9999.000 -9999.000 -9999.000 -9999.000 -9999.000 -9999.000 -9999.000 -9999.000 -9999.000 -9999.000
-9999.000 -9999.000 994.752 989.450 988.333 986.001 982.308 979.422 972.876 974.389 970.361 966.834 964.470 959.071 956.174 954.695 951.091 950.266 944.265 940.512 936.203 932.831 927.722 925.439 923.515 922.537 922.614 922.491 923.719 925.317 924.692 924.890 924.477 924.746 922.272 920.500 918.301 914.851 912.517 908.808 905.879 903.458 900.644 897.835 896.442 896.341 895.845 895.041 894.796 894.588 894.077 893.998 893.731 893.291 892.447 891.267 890.063 888.502 886.855 884.962 883.821 882.558 879.545 877.514 875.783 873.744 872.122 867.622 866.837 867.824 867.447 868.286 869.033 869.437 868.731 868.508 867.795 869.362 869.540 870.477 868.841 863.025 870.273 870.568 871.106 871.721 872.693 873.364 873.647 871.830 -9999.000 -9999.000 -9999.000 -9999.000 -9999.000 -9999.000 -9999.000 -9999.000 -9999.000 -9999.000 -9999.000 -9999.000 -9999.000 -9999.000
-9999.000 -9999.000 985.882 979.626 980.446 977.086 972.038 969.184 965.859 962.640 959.534 956.225 953.519 950.526 947.742 944.226 942.380 939.541 934.819 931.735 928.274 925.832 921.831 919.517 916.922 917.317 918.345 918.358 919.841 921.104 919.790 919.979 919.453 920.411 919.045 916.434 913.928 911.719 908.844 906.020 903.058 900.922 898.056 896.089 893.929 893.631 892.584 892.146 891.695 891.685 891.416 891.345 890.617 891.106 890.100 888.918 887.966 885.845 884.697 883.825 881.704 878.907 877.649 875.618 872.791 871.504 868.821 866.904 862.781 864.247 863.699 864.918 865.081 865.511 865.038 864.813 864.492 865.504 868.240 867.764 866.498 859.216 866.708 867.534 867.033 869.881 870.380 871.483 871.323 869.961 -9999.000 -9999.000 -9999.000 -9999.000 -9999.000 -9999.000 -9999.000 -9999.000 -9999.000 -9999.000 -9999.000 -9999.000 -9999.000 -9999.000
-9999.000 -9999.000 975.876 973.295 970.691 966.555 964.138 959.526 957.397 953.223 951.124 946.654 944.333 942.963 937.761 935.128 933.566 930.778 927.702 924.279 921.546 919.485 916.175 913.783 911.091 911.674 913.564 914.886 915.408 916.216 914.919 914.523 915.452 915.889 914.169 912.145 910.049 908.487 905.748 903.311 901.230 898.587 895.707 893.261 891.007 890.770 890.178 889.857 888.698 888.883 889.096 889.308 889.085 887.802 887.825 887.269 885.160 884.374 882.632 880.516 878.922 877.443 875.555 872.955 870.805 867.327 866.729 865.171 863.417 859.192 860.907 861.456 862.038 861.980 861.353 861.494 861.593 863.381 863.536 864.241 863.516 856.305 864.790 859.028 864.107 865.225 867.624 869.820 869.532 867.831 867.630 -9999.000 -9999.000 -9999.000 -9999.000 -9999.000 -9999.000 -9999.000 -9999.000 -9999.000 -9999.000 -9999.000 -9999.000 -9999.000
-9999.000 -9999.000 964.963 965.479 960.482 957.509 955.716 950.587 948.281 946.671 944.301 939.069 938.412 935.702 933.210 929.205 926.658 924.647 922.629 917.746 915.785 914.397 911.614 907.857 906.351 907.834 909.441 910.974 911.977 911.381 910.682 911.162 911.393 911.663 909.802 908.311 906.508 905.131 902.638 901.135 898.358 896.342 893.462 890.977 889.001 888.911 888.003 887.040 886.617 886.519 886.595 886.863 886.750 886.289 885.138 883.709 882.476 881.279 879.715 878.557 877.092 874.617 871.671 870.234 867.212 864.368 864.572 863.282 861.280 857.225 857.547 858.097 858.891 857.793 857.814 857.974 858.951 861.115 860.800 862.164 860.636 848.456 856.314 855.698 860.114 861.705 864.763 866.939 866.687 865.708 865.821 -9999.000 -9999.000 -9999.000 -9999.000 -9999.000 -9999.000 -9999.000 -9999.000 -9999.000 -9999.000 -9999.000 -9999.000 -9999.000
-9999.000 -9999.000 954.404 955.441 956.324 949.735 946.500 944.401 939.460 937.872 939.013 934.742 929.791 929.700 928.107 925.794 919.454 919.125 917.928 913.378 910.120 908.262 905.784 903.886 903.828 904.284 905.500 906.789 907.867 907.015 906.531 906.995 907.221 906.741 906.492 904.812 902.976 901.078 899.181 898.196 896.482 893.592 891.538 888.998 886.903 887.068 885.891 885.103 884.890 884.689 884.359 884.483 884.273 883.155 882.819 882.170 879.852 879.051 877.113 876.257 874.746 872.857 871.490 869.801 867.799 865.586 863.986 859.069 858.436 855.728 855.088 854.872 855.757 854.931 855.029 854.859 855.460 858.630 859.013 859.196 858.877 842.950 841.884 851.480 856.088 857.588 861.549 864.013 863.070 863.431 863.564 -9999.000 -9999.000 -9999.000 -9999.000 -9999.000 -9999.000 -9999.000 -9999.000 -9999.000 -9999.000 -9999.000 -9999.000 -9999.000
-9999.000 -9999.000 949.241 947.702 949.962 947.012 936.967 937.905 931.322 929.174 931.641 932.901 925.911 921.082 920.908 918.911 915.656 912.889 909.294 907.980 905.075 903.450 902.106 900.760 900.534 901.644 902.411 901.046 903.791 903.078 902.959 903.389 903.148 903.151 903.406 901.858 899.839 898.184 896.274 894.153 892.514 890.595 889.281 887.041 885.710 884.363 883.318 882.965 882.786 882.565 882.304 882.310 882.293 881.986 880.048 878.882 878.308 876.961 875.495 873.815 872.841 871.301 869.594 867.961 866.104 864.249 861.887 859.884 855.070 852.562 851.049 850.610 852.033 851.774 851.039 852.121 853.135 856.306 853.333 855.662 855.433 843.910 839.589 836.938 851.951 853.920 859.027 860.202 860.957 861.018 861.004 -9999.000 -9999.000 -9999.000 -9999.000 -9999.000 -9999.000 -9999.000 -9999.000 -9999.000 -9999.000 -9999.000 -9999.000 -9999.000
-9999.000 -9999.000 -9999.000 942.012 942.648 942.306 933.053 928.757 925.523 924.289 924.354 925.591 922.744 919.040 917.073 915.210 912.990 909.819 907.117 904.120 901.848 899.726 898.053 897.049 897.292 897.989 899.955 899.803 899.655 898.648 899.137 899.801 899.793 899.532 899.318 898.853 897.282 895.280 893.967 892.130 890.180 888.608 887.401 886.151 883.926 881.999 881.650 881.283 880.980 881.099 881.079 880.209 879.309 878.740 877.520 877.414 875.660 874.730 873.185 872.162 870.792 869.592 867.924 866.048 864.380 862.480 860.429 857.221 855.841 850.999 847.310 848.516 846.184 848.324 847.644 846.846 850.590 851.553 846.116 852.552 851.554 850.828 831.493 834.021 841.931 852.314 856.427 857.303 858.359 858.787 858.646 858.891 -9999.000 -9999.000 -9999.000 -9999.000 -9999.000 -9999.000 -9999.000 -9999.000 -9999.000 -9999.000 -9999.000 -9999.000
-9999.000 -9999.000 -9999.000 939.661 935.992 932.960 930.967 926.038 921.073 918.848 918.838 920.019 917.499 915.118 912.762 911.247 908.533 906.231 903.762 901.392 898.873 897.041 895.112 894.238 894.734 895.879 896.300 896.499 896.581 895.745 895.497 895.588 895.272 896.419 896.136 895.392 893.957 892.748 891.739 889.963 888.081 886.583 884.772 883.777 882.847 881.995 880.806 880.156 879.014 877.788 877.681 877.058 876.204 875.907 875.578 874.880 873.617 872.773 871.472 870.416 869.173 867.723 866.393 864.275 862.037 860.905 859.008 854.963 851.781 850.859 847.153 844.971 842.769 843.314 844.594 844.355 845.395 841.519 840.093 845.214 842.586 844.270 835.883 829.987 838.231 850.473 854.477 855.606 856.577 857.107 855.648 854.995 -9999.000 -9999.000 -9999.000 -9999.000 -9999.000 -9999.000 -9999.000 -9999.000 -9999.000 -9999.000 -9999.000 -9999.000
-9999.000 -9999.000 -9999.000 940.361 933.802 926.889 926.406 919.994 916.743 913.967 912.779 915.469 912.867 909.279 908.714 907.230 905.084 903.131 900.679 898.786 895.790 894.025 892.935 891.706 891.715 892.365 892.768 894.401 894.256 893.266 892.401 892.160 892.776 893.217 892.592 892.721 891.723 890.705 889.550 887.984 885.388 885.744 884.268 883.322 881.788 880.095 878.096 877.296 877.175 876.793 875.078 875.053 875.318 874.015 873.663 872.604 871.466 870.501 869.665 868.646 867.195 866.253 863.688 863.226 860.727 857.018 854.377 854.291 853.089 849.691 845.140 841.942 839.353 837.242 840.601 840.813 840.330 838.122 835.981 834.679 834.147 834.511 834.056 825.225 833.225 847.141 849.654 851.292 854.163 854.560 853.404 852.602 -9999.000 -9999.000 -9999.000 -9999.000 -9999.000 -9999.000 -9999.000 -9999.000 -9999.000 -9999.000 -9999.000 -9999.000
-9999.000 -9999.000 -9999.000 932.819 930.245 922.324 921.442 915.808 913.138 911.222 907.974 907.942 907.685 905.312 905.338 903.741 901.971 900.346 898.081 896.123 893.623 892.404 891.511 889.742 889.508 890.000 889.557 890.495 890.747 890.300 888.799 889.813 890.267 890.772 891.490 890.762 890.043 889.301 886.993 887.182 887.171 885.565 884.069 882.721 881.282 879.126 878.029 876.570 875.076 874.440 873.629 872.380 872.075 871.832 871.342 870.172 869.705 869.458 868.320 866.954 864.397 863.299 863.183 859.696 859.454 858.034 856.260 854.558 852.987 852.297 849.449 848.780 840.086 833.757 837.135 836.955 837.563 835.489 832.678 832.076 830.657 829.904 827.391 826.902 825.253 839.817 841.520 843.843 848.343 852.678 851.732 850.263 -9999.000 -9999.000 -9999.000 -9999.000 -9999.000 -9999.000 -9999.000 -9999.000 -9999.000 -9999.000 -9999.000 -9999.000
-9999.000 -9999.000 -9999.000 923.514 922.272 917.522 917.793 912.668 908.901 910.419 904.222 902.323 902.233 901.830 902.469 900.688 898.080 896.396 894.987 892.769 891.413 889.964 888.254 887.179 887.074 887.421 887.245 887.956 888.082 887.413 887.590 887.950 888.215 889.084 889.256 888.817 888.384 888.191 887.431 886.905 885.928 883.805 882.889 881.318 878.624 877.323 876.131 874.863 873.838 872.650 871.537 871.520 871.283 871.748 871.037 869.225 868.675 867.712 866.854 865.434 864.263 862.879 861.673 860.275 857.995 856.547 854.847 854.358 853.353 852.627 851.436 850.399 844.838 830.934 833.684 834.317 832.811 832.389 830.854 828.476 827.763 827.577 823.952 824.057 818.662 835.052 832.357 834.836 839.722 849.401 850.004 847.835 848.750 -9999.000 -9999.000 -9999.000 -9999.000 -9999.000 -9999.000 -9999.000 -9999.000 -9999.000 -9999.000 -9999.000
-9999.000 -9999.000 -9999.000 917.204 919.223 913.642 914.029 909.890 905.023 903.077 900.974 898.884 897.958 897.513 897.293 896.407 894.610 892.829 891.541 889.955 888.511 887.255 886.300 885.220 884.605 885.058 884.822 885.853 886.701 886.722 886.691 886.862 887.277 888.008 888.251 887.881 887.441 887.057 886.541 885.226 883.949 882.244 880.504 878.631 876.899 875.643 873.484 872.198 872.108 871.727 871.328 871.226 870.116 869.781 868.735 868.729 867.808 866.712 865.797 864.622 863.245 861.972 860.509 859.244 857.192 855.767 854.794 854.159 853.238 853.039 852.786 850.966 836.983 828.143 829.277 830.025 830.836 829.398 829.044 825.892 823.817 824.034 821.092 818.829 814.706 825.169 823.252 825.333 830.148 841.792 847.862 845.820 844.967 -9999.000 -9999.000 -9999.000 -9999.000 -9999.000 -9999.000 -9999.000 -9999.000 -9999.000 -9999.000 -9999.000
-9999.000 -9999.000 -9999.000 914.010 914.532 911.111 910.995 906.865 902.935 899.487 896.823 894.937 893.824 893.323 892.726 891.744 890.067 889.010 888.140 887.031 886.144 884.719 884.080 883.372 882.914 882.796 883.550 884.066 885.085 885.301 885.673 885.920 886.151 886.557 886.689 887.016 885.480 884.686 883.583 882.323 881.012 879.547 878.100 876.690 875.285 873.964 871.750 871.156 870.850 870.417 870.005 869.869 869.323 868.835 868.111 868.156 866.765 865.574 864.640 863.580 862.284 861.302 860.137 858.928 857.599 856.303 855.314 854.587 854.178 854.238 853.237 848.213 832.945 827.392 826.842 826.727 826.337 826.311 825.302 823.130 821.589 819.938 817.885 815.477 817.402 811.017 814.723 816.451 823.365 834.604 841.380 840.455 843.111 -9999.000 -9999.000 -9999.000 -9999.000 -9999.000 -9999.000 -9999.000 -9999.000 -9999.000 -9999.000 -9999.000
-9999.000 -9999.000 -9999.000 913.423 910.456 908.025 905.536 903.721 899.458 896.641 894.296 892.051 890.651 889.856 888.521 887.181 885.938 885.301 884.624 883.806 882.753 881.978 882.171 881.468 880.185 881.438 882.399 882.940 883.553 884.106 884.217 884.356 884.464 884.290 883.811 883.008 882.344 881.158 880.310 879.461 878.533 877.679 876.864 875.899 874.331 872.250 870.889 870.061 869.574 869.433 869.172 869.021 868.713 868.491 867.574 866.966 866.395 865.542 864.389 863.374 862.240 861.200 860.289 859.039 858.128 857.401 856.602 856.123 855.774 854.755 852.148 842.885 830.317 824.443 822.307 822.898 823.627 823.369 822.712 821.058 819.167 817.239 815.948 813.298 812.205 812.101 805.543 807.470 815.809 827.173 829.624 831.963 841.232 -9999.000 -9999.000 -9999.000 -9999.000 -9999.000 -9999.000 -9999.000 -9999.000 -9999.000 -9999.000 -9999.000
-9999.000 -9999.000 -9999.000 909.407 906.773 903.595 901.870 900.399 896.929 894.094 892.133 889.695 887.890 886.432 884.886 883.707 882.217 881.653 881.277 880.752 879.904 879.640 879.256 878.844 879.083 880.988 881.614 882.008 882.063 882.506 882.014 882.258 882.297 881.731 881.015 879.644 879.187 878.968 878.557 877.972 877.487 876.674 876.013 875.230 873.517 871.646 870.699 869.447 868.991 868.544 868.294 868.399 868.004 867.839 867.494 866.924 866.546 865.471 864.389 863.381 862.509 861.356 860.356 859.614 859.123 858.607 857.991 856.961 856.160 854.415 852.248 839.402 826.600 821.732 821.310 820.023 820.474 820.617 820.710 818.975 818.087 815.386 813.915 812.325 809.139 809.110 807.031 802.193 808.228 817.605 816.978 824.718 835.698 837.652 -9999.000 -9999.000 -9999.000 -9999.000 -9999.000 -9999.000 -9999.000 -9999.000 -9999.000 -9999.000
-9999.000 -9999.000 -9999.000 904.316 903.673 900.223 898.342 897.078 893.958 891.732 889.415 887.336 885.150 883.585 882.217 880.866 879.250 878.413 878.081 877.756 877.262 877.021 876.879 876.641 877.974 879.260 879.691 879.950 880.185 880.294 880.265 880.484 880.204 879.660 879.416 878.802 878.342 878.021 877.683 876.787 876.128 875.482 874.821 874.177 872.845 871.565 870.460 869.441 868.640 867.991 867.462 867.506 867.457 867.308 867.033 866.662 866.243 865.304 864.194 863.168 862.229 861.198 860.397 859.964 859.529 858.740 857.977 856.529 854.760 853.335 851.379 848.303 835.060 820.584 819.076 817.065 816.828 817.990 817.867 816.756 814.707 813.846 811.770 810.360 808.862 805.733 803.408 802.378 801.023 803.573 808.202 819.960 827.620 830.952 -9999.000 -9999.000 -9999.000 -9999.000 -9999.000 -9999.000 -9999.000 -9999.000 -9999.000 -9999.000
-9999.000 -9999.000 -9999.000 897.248 900.924 897.526 894.723 892.938 891.701 889.287 887.036 884.791 882.788 880.875 879.666 878.329 877.019 875.861 875.353 875.089 874.962 874.869 874.877 875.078 876.041 877.123 877.855 878.350 878.880 879.269 879.308 879.162 879.075 878.885 878.478 878.174 877.966 877.475 877.129 876.634 876.336 876.134 875.254 874.390 873.351 872.141 870.836 869.926 869.093 868.048 867.255 866.807 866.649 866.345 866.244 865.896 865.125 864.655 863.907 862.994 862.310 861.405 860.570 859.752 858.752 857.626 856.228 854.619 853.119 851.816 850.436 845.428 834.120 824.982 817.001 815.879 813.691 813.963 814.499 813.945 813.217 810.224 810.265 809.194 807.265 803.446 800.592 799.930 795.525 796.739 801.874 810.801 815.873 820.762 -9999.000 -9999.000 -9999.000 -9999.000 -9999.000 -9999.000 -9999.000 -9999.000 -9999.000 -9999.000
-9999.000 -9999.000 -9999.000 892.114 894.221 895.447 891.455 889.732 888.674 887.135 884.417 882.146 880.538 878.675 876.941 875.954 874.862 873.914 873.021 872.578 872.658 873.158 873.309 874.008 874.773 875.709 876.753 877.691 878.418 878.654 878.675 878.187 878.300 878.349 877.752 877.525 877.358 877.058 876.982 876.903 876.557 876.208 875.479 874.493 873.129 872.117 871.218 870.160 869.082 867.962 867.043 866.352 864.895 865.210 864.917 864.559 864.135 863.845 863.251 862.673 861.822 860.862 859.715 858.294 857.079 856.000 854.534 853.197 852.004 851.036 850.327 849.588 845.135 834.954 824.195 814.482 812.257 811.422 810.142 810.950 810.255 809.198 806.563 806.079 803.606 802.933 798.868 796.677 796.572 791.396 792.371 797.867 803.273 808.416 -9999.000 -9999.000 -9999.000 -9999.000 -9999.000 -9999.000 -9999.000 -9999.000 -9999.000 -9999.000
-9999.000 -9999.000 -9999.000 896.519 887.212 887.134 891.291 888.365 884.592 884.468 882.438 879.980 878.069 876.480 874.243 873.355 872.811 872.036 871.233 870.978 870.878 871.294 872.493 874.044 875.321 876.028 877.057 877.605 877.662 878.074 877.404 876.998 877.489 877.714 877.228 877.044 877.217 877.134 876.854 876.508 876.136 875.337 874.105 872.999 872.298 871.827 870.930 869.911 868.600 867.393 866.486 865.651 864.362 863.818 863.962 863.680 863.130 862.669 862.266 861.530 860.493 859.406 858.195 856.739 855.276 853.842 852.561 851.403 850.494 849.716 849.353 848.805 848.085 841.872 828.949 825.873 816.650 809.318 807.824 806.860 807.112 806.978 805.300 802.994 801.465 799.761 797.257 794.506 792.356 793.198 787.856 786.761 790.268 797.851 803.257 -9999.000 -9999.000 -9999.000 -9999.000 -9999.000 -9999.000 -9999.000 -9999.000 -9999.000
-9999.000 -9999.000 -9999.000 894.444 892.540 880.945 884.746 888.170 881.584 880.656 880.353 878.042 875.847 873.937 872.090 870.935 870.631 870.158 869.654 869.415 870.801 872.703 873.905 874.741 875.596 876.327 876.411 875.401 871.975 873.906 871.725 871.280 873.580 876.512 876.509 877.262 876.735 875.937 871.673 874.412 874.119 873.305 872.486 871.727 871.078 870.521 869.980 868.857 867.216 865.985 865.053 863.899 863.192 861.209 862.389 862.229 861.683 861.118 860.621 859.820 858.787 857.593 856.323 854.718 852.764 850.996 849.763 848.342 847.611 847.337 847.186 846.968 846.515 846.280 841.310 834.378 826.807 816.798 805.482 803.909 803.297 804.013 803.270 800.374 799.653 797.565 795.660 792.729 789.990 788.625 787.673 785.686 783.942 786.418 790.997 -9999.000 -9999.000 -9999.000 -9999.000 -9999.000 -9999.000 -9999.000 -9999.000 -9999.000
-9999.000 -9999.000 -9999.000 -9999.000 884.865 879.806 877.188 883.853 880.284 877.373 877.945 876.378 873.947 871.658 870.233 868.502 868.484 868.216 867.478 869.898 872.166 873.536 874.316 874.970 875.304 875.680 873.080 868.139 865.904 866.136 864.582 863.806 872.032 876.201 874.774 873.580 871.235 867.041 862.324 868.461 871.149 871.530 870.785 869.888 869.084 868.335 867.759 866.465 865.027 863.874 862.726 860.986 859.409 851.958 859.231 859.456 859.034 858.874 858.112 857.312 855.894 854.499 852.855 851.182 849.431 848.117 847.469 846.661 846.350 846.227 846.113 845.473 844.716 843.946 843.963 843.297 835.329 824.905 809.096 801.554 800.434 800.561 798.829 799.113 797.597 793.238 792.548 789.959 787.596 786.208 784.548 783.578 783.079 778.848 781.625 -9999.000 -9999.000 -9999.000 -9999.000 -9999.000 -9999.000 -9999.000 -9999.000 -9999.000
