ncols 88
nrows 116
xllcenter 176963.44
yllcenter 376370.31
cellsize 20.00
NODATA_value -9999.000
-9999.000 -9999.000 -9999.000 -9999.000 -9999.000 -9999.000 -9999.000 -9999.000 -9999.000 -9999.000 -9999.000 -9999.000 -9999.000 -9999.000 -9999.000 -9999.000 -9999.000 -9999.000 -9999.000 -9999.000 -9999.000 -9999.000 -9999.000 -9999.000 -9999.000 -9999.000 -9999.000 -9999.000 -9999.000 -9999.000 -9999.000 -9999.000 -9999.000 -9999.000 -9999.000 -9999.000 -9999.000 -9999.000 -9999.000 -9999.000 -9999.000 -9999.000 -9999.000 -9999.000 -9999.000 -9999.000 -9999.000 -9999.000 -9999.000 -9999.000 -9999.000 -9999.000 -9999.000 -9999.000 -9999.000 -9999.000 -9999.000 1056.868 1056.816 1056.617 1056.755 1056.692 1056.605 1056.234 1053.838 1053.796 1054.252 1056.645 1055.899 1056.280 1056.690 1056.892 1057.076 1057.381 1057.220 1057.394 1057.629 1057.325 -9999.000 -9999.000 -9999.000 -9999.000 -9999.000 -9999.000 -9999.000 -9999.000 -9999.000 -9999.000
-9999.000 -9999.000 -9999.000 -9999.000 -9999.000 -9999.000 -9999.000 -9999.000 -9999.000 -9999.000 -9999.000 -9999.000 -9999.000 -9999.000 -9999.000 -9999.000 -9999.000 -9999.000 -9999.000 -9999.000 -9999.000 -9999.000 -9999.000 -9999.000 -9999.000 -9999.000 -9999.000 -9999.000 -9999.000 -9999.000 -9999.000 -9999.000 -9999.000 -9999.000 -9999.000 -9999.000 -9999.000 -9999.000 -9999.000 -9999.000 -9999.000 -9999.000 -9999.000 -9999.000 -9999.000 -9999.000 -9999.000 -9999.000 -9999.000 -9999.000 -9999.000 -9999.000 -9999.000 -9999.000 1057.601 1057.265 1056.887 1057.199 1057.034 1057.109 1057.071 1057.272 1055.289 1053.990 1053.967 1054.855 1056.628 1056.256 1055.975 1055.894 1057.298 1057.722 1057.970 1057.918 1057.782 1057.854 1058.021 1057.376 1057.521 1055.343 -9999.000 -9999.000 -9999.000 -9999.000 -9999.000 -9999.000 -9999.000 -9999.000
-9999.000 -9999.000 -9999.000 -9999.000 -9999.000 -9999.000 -9999.000 -9999.000 -9999.000 -9999.000 -9999.000 -9999.000 -9999.000 -9999.000 -9999.000 -9999.000 -9999.000 -9999.000 -9999.000 -9999.000 -9999.000 -9999.000 -9999.000 -9999.000 -9999.000 -9999.000 -9999.000 -9999.000 -9999.000 -9999.000 -9999.000 -9999.000 -9999.000 -9999.000 -9999.000 -9999.000 -9999.000 -9999.000 -9999.000 -9999.000 -9999.000 -9999.000 -9999.000 -9999.000 -9999.000 -9999.000 -9999.000 -9999.000 -9999.000 -9999.000 -9999.000 -9999.000 1057.674 1057.483 1057.321 1057.628 1057.254 1057.268 1057.166 1057.152 1056.943 1054.081 1054.177 1054.057 1056.398 1056.535 1056.246 1056.272 1055.888 1055.323 1058.090 1058.506 1058.297 1058.543 1058.483 1058.448 1058.119 1057.663 1057.364 1056.056 1057.577 1057.854 -9999.000 -9999.000 -9999.000 -9999.000 -9999.000 -9999.000
-9999.000 -9999.000 -9999.000 -9999.000 -9999.000 -9999.000 -9999.000 -9999.000 -9999.000 -9999.000 -9999.000 -9999.000 -9999.000 -9999.000 -9999.000 -9999.000 -9999.000 -9999.000 -9999.000 -9999.000 -9999.000 -9999.000 -9999.000 -9999.000 -9999.000 -9999.000 -9999.000 -9999.000 -9999.000 -9999.000 -9999.000 -9999.000 -9999.000 -9999.000 -9999.000 -9999.000 -9999.000 -9999.000 -9999.000 -9999.000 -9999.000 -9999.000 -9999.000 -9999.000 -9999.000 -9999.000 -9999.000 -9999.000 -9999.000 -9999.000 1058.087 1057.670 1057.642 1057.299 1057.548 1057.282 1057.765 1057.505 1057.949 1055.742 1054.377 1054.306 1055.760 1057.059 1056.570 1056.494 1056.352 1056.081 1055.933 1055.525 1059.211 1058.605 1059.354 1059.357 1059.070 1058.360 1058.379 1058.126 1056.845 1056.385 1058.088 1058.154 1059.714 -9999.000 -9999.000 -9999.000 -9999.000 -9999.000
-9999.000 -9999.000 -9999.000 -9999.000 -9999.000 -9999.000 -9999.000 -9999.000 -9999.000 -9999.000 -9999.000 -9999.000 -9999.000 -9999.000 -9999.000 -9999.000 -9999.000 -9999.000 -9999.000 -9999.000 -9999.000 -9999.000 -9999.000 -9999.000 -9999.000 -9999.000 -9999.000 -9999.000 -9999.000 -9999.000 -9999.000 -9999.000 -9999.000 -9999.000 -9999.000 -9999.000 -9999.000 -9999.000 -9999.000 -9999.000 -9999.000 -9999.000 -9999.000 -9999.000 -9999.000 -9999.000 -9999.000 -9999.000 1059.331 1058.237 1057.837 1057.569 1057.809 1057.477 1057.575 1057.429 1057.672 1057.430 1054.562 1054.468 1054.528 1056.078 1056.895 1056.629 1056.514 1056.365 1056.214 1056.682 1057.399 1057.322 1058.176 1058.570 1059.386 1059.817 1059.836 1059.156 1058.841 1058.398 1056.759 1056.719 1058.220 1058.538 1059.576 1060.456 1059.446 -9999.000 -9999.000 -9999.000
-9999.000 -9999.000 -9999.000 -9999.000 -9999.000 -9999.000 -9999.000 -9999.000 -9999.000 -9999.000 -9999.000 -9999.000 -9999.000 -9999.000 -9999.000 -9999.000 -9999.000 -9999.000 -9999.000 -9999.000 -9999.000 -9999.000 -9999.000 -9999.000 -9999.000 -9999.000 -9999.000 -9999.000 -9999.000 -9999.000 -9999.000 -9999.000 -9999.000 -9999.000 -9999.000 -9999.000 -9999.000 -9999.000 -9999.000 -9999.000 -9999.000 -9999.000 -9999.000 -9999.000 -9999.000 -9999.000 1059.465 1059.221 1060.373 1058.723 1057.898 1057.686 1057.870 1057.796 1057.724 1058.138 1055.792 1054.729 1054.614 1054.835 1057.178 1056.699 1056.698 1056.505 1056.414 1056.298 1057.084 1056.345 1055.578 1058.391 1058.710 1059.401 1059.873 1059.978 1059.840 1060.449 1058.596 1058.896 1057.047 1056.910 1058.160 1058.869 1059.448 1060.566 1060.231 -9999.000 -9999.000 -9999.000
-9999.000 -9999.000 -9999.000 -9999.000 -9999.000 -9999.000 -9999.000 -9999.000 -9999.000 -9999.000 -9999.000 -9999.000 -9999.000 -9999.000 -9999.000 -9999.000 -9999.000 -9999.000 -9999.000 -9999.000 -9999.000 -9999.000 -9999.000 -9999.000 -9999.000 -9999.000 -9999.000 -9999.000 -9999.000 -9999.000 -9999.000 -9999.000 -9999.000 -9999.000 -9999.000 -9999.000 -9999.000 -9999.000 -9999.000 -9999.000 -9999.000 -9999.000 -9999.000 -9999.000 1060.574 1059.859 1059.638 1058.943 1058.726 1059.051 1058.528 1057.920 1058.015 1057.860 1058.022 1054.906 1054.917 1054.849 1056.755 1057.650 1056.960 1056.766 1056.720 1056.593 1056.544 1057.983 1056.320 1056.149 1056.037 1056.422 1059.321 1059.879 1060.296 1060.599 1060.449 1060.619 1061.096 1058.977 1059.090 1056.618 1058.706 1058.892 1059.685 1061.293 1061.196 -9999.000 -9999.000 -9999.000
-9999.000 -9999.000 -9999.000 -9999.000 -9999.000 -9999.000 -9999.000 -9999.000 -9999.000 -9999.000 -9999.000 -9999.000 -9999.000 -9999.000 -9999.000 -9999.000 -9999.000 -9999.000 -9999.000 -9999.000 -9999.000 -9999.000 -9999.000 -9999.000 -9999.000 -9999.000 -9999.000 -9999.000 -9999.000 -9999.000 -9999.000 -9999.000 -9999.000 -9999.000 -9999.000 -9999.000 -9999.000 -9999.000 -9999.000 -9999.000 -9999.000 -9999.000 1061.772 1061.013 1060.089 1059.618 1059.138 1058.931 1058.217 1058.099 1058.393 1058.308 1058.471 1056.232 1055.026 1055.001 1056.298 1056.889 1057.415 1057.263 1057.052 1056.857 1056.765 1056.746 1057.746 1056.388 1056.569 1056.695 1056.406 1056.579 1059.567 1060.164 1060.825 1060.934 1060.579 1061.654 1061.178 1059.441 1059.678 1057.308 1059.370 1059.466 1059.689 1061.060 1061.537 1061.173 -9999.000 -9999.000
-9999.000 -9999.000 -9999.000 -9999.000 -9999.000 -9999.000 -9999.000 -9999.000 -9999.000 -9999.000 -9999.000 -9999.000 -9999.000 -9999.000 -9999.000 -9999.000 -9999.000 -9999.000 -9999.000 -9999.000 -9999.000 -9999.000 -9999.000 -9999.000 -9999.000 -9999.000 -9999.000 -9999.000 -9999.000 -9999.000 -9999.000 -9999.000 -9999.000 -9999.000 -9999.000 -9999.000 -9999.000 -9999.000 -9999.000 -9999.000 1063.653 1062.688 1061.562 1060.506 1059.614 1059.149 1059.029 1058.926 1058.127 1058.198 1058.276 1058.395 1055.249 1055.233 1055.167 1056.588 1058.078 1057.596 1057.480 1057.413 1057.060 1056.947 1058.198 1057.392 1056.447 1056.649 1056.610 1056.535 1057.251 1059.647 1059.919 1060.552 1062.139 1061.789 1061.662 1063.008 1061.766 1059.677 1059.941 1057.238 1058.537 1060.080 1059.922 1060.243 1061.496 1061.525 -9999.000 -9999.000
-9999.000 -9999.000 -9999.000 -9999.000 -9999.000 -9999.000 -9999.000 -9999.000 -9999.000 -9999.000 -9999.000 -9999.000 -9999.000 -9999.000 -9999.000 -9999.000 -9999.000 -9999.000 -9999.000 -9999.000 -9999.000 -9999.000 -9999.000 -9999.000 -9999.000 -9999.000 -9999.000 -9999.000 -9999.000 -9999.000 -9999.000 -9999.000 -9999.000 -9999.000 -9999.000 -9999.000 -9999.000 -9999.000 1064.910 1063.943 1062.836 1061.864 1061.350 1059.620 1059.049 1059.282 1059.068 1058.679 1058.167 1058.731 1057.099 1055.539 1055.573 1055.745 1057.518 1057.666 1057.351 1057.233 1057.143 1057.037 1056.877 1056.529 1056.737 1057.951 1056.703 1056.802 1056.888 1056.820 1059.456 1059.605 1059.620 1062.226 1061.935 1061.964 1061.753 1063.493 1062.571 1061.444 1060.142 1057.971 1057.596 1060.257 1060.232 1060.079 1061.738 1063.000 -9999.000 -9999.000
-9999.000 -9999.000 -9999.000 -9999.000 -9999.000 -9999.000 -9999.000 -9999.000 -9999.000 -9999.000 -9999.000 -9999.000 -9999.000 -9999.000 -9999.000 -9999.000 -9999.000 -9999.000 -9999.000 -9999.000 -9999.000 -9999.000 -9999.000 -9999.000 -9999.000 -9999.000 -9999.000 -9999.000 -9999.000 -9999.000 -9999.000 -9999.000 -9999.000 -9999.000 -9999.000 -9999.000 1064.669 1063.751 1062.839 1062.157 1061.898 1061.216 1060.021 1059.125 1059.319 1059.169 1058.896 1058.409 1058.982 1056.172 1055.889 1055.766 1056.919 1058.402 1057.799 1057.758 1057.573 1057.270 1056.996 1056.936 1056.971 1057.046 1056.918 1056.943 1057.830 1056.838 1057.581 1058.830 1059.788 1060.154 1062.756 1062.544 1062.517 1062.671 1061.391 1063.675 1064.112 1063.351 1060.568 1059.466 1058.095 1060.466 1060.541 1060.571 1061.100 1062.703 -9999.000 -9999.000
-9999.000 -9999.000 -9999.000 -9999.000 -9999.000 -9999.000 -9999.000 -9999.000 -9999.000 -9999.000 -9999.000 -9999.000 -9999.000 -9999.000 -9999.000 -9999.000 -9999.000 -9999.000 -9999.000 -9999.000 -9999.000 -9999.000 -9999.000 -9999.000 -9999.000 -9999.000 -9999.000 -9999.000 -9999.000 -9999.000 -9999.000 -9999.000 -9999.000 -9999.000 1065.060 1064.017 1063.576 1062.033 1060.791 1060.790 1060.734 1059.959 1059.526 1059.170 1058.678 1058.548 1059.064 1058.191 1056.117 1056.094 1055.961 1058.254 1058.215 1058.488 1058.288 1058.150 1058.012 1057.771 1057.411 1057.111 1056.933 1056.956 1056.800 1056.718 1057.316 1057.476 1057.757 1060.427 1062.085 1063.292 1063.323 1063.016 1062.889 1063.127 1063.056 1061.902 1064.563 1063.942 1062.397 1060.915 1058.563 1060.904 1060.840 1060.934 1060.984 1062.552 -9999.000 -9999.000
-9999.000 -9999.000 -9999.000 -9999.000 -9999.000 -9999.000 -9999.000 -9999.000 -9999.000 -9999.000 -9999.000 -9999.000 -9999.000 -9999.000 -9999.000 -9999.000 -9999.000 -9999.000 -9999.000 -9999.000 -9999.000 -9999.000 -9999.000 -9999.000 -9999.000 -9999.000 -9999.000 -9999.000 -9999.000 -9999.000 -9999.000 -9999.000 -9999.000 1062.637 1063.174 1063.889 1062.996 1061.311 1060.334 1059.612 1059.307 1059.115 1058.934 1059.068 1059.589 1058.871 1058.219 1056.278 1056.213 1056.415 1058.319 1058.638 1058.764 1058.657 1058.445 1058.341 1058.112 1057.958 1057.886 1057.541 1057.219 1057.511 1057.292 1057.003 1057.085 1057.283 1060.222 1061.174 1061.556 1063.700 1063.785 1063.779 1063.844 1063.849 1064.295 1062.262 1064.300 1065.013 1063.943 1061.332 1058.715 1061.306 1061.126 1061.141 1061.392 1061.861 -9999.000 -9999.000
-9999.000 -9999.000 -9999.000 -9999.000 -9999.000 -9999.000 -9999.000 -9999.000 -9999.000 -9999.000 -9999.000 -9999.000 -9999.000 -9999.000 -9999.000 -9999.000 -9999.000 -9999.000 -9999.000 -9999.000 -9999.000 -9999.000 -9999.000 -9999.000 -9999.000 -9999.000 -9999.000 -9999.000 -9999.000 -9999.000 -9999.000 1061.324 1061.402 1061.513 1061.757 1062.714 1061.456 1061.673 1060.061 1059.644 1060.012 1059.349 1058.320 1058.744 1059.389 1056.891 1056.422 1056.320 1058.623 1058.297 1058.962 1058.826 1058.747 1058.544 1058.400 1058.190 1058.091 1057.953 1057.788 1057.767 1057.613 1057.393 1057.191 1057.214 1057.169 1057.711 1061.759 1061.662 1061.626 1063.512 1063.966 1064.456 1064.785 1064.806 1064.337 1062.853 1063.004 1065.581 1065.184 1061.582 1058.873 1061.605 1061.507 1061.336 1061.894 1061.829 -9999.000 -9999.000
-9999.000 -9999.000 -9999.000 -9999.000 -9999.000 -9999.000 -9999.000 -9999.000 -9999.000 -9999.000 -9999.000 -9999.000 -9999.000 -9999.000 -9999.000 -9999.000 -9999.000 -9999.000 -9999.000 -9999.000 -9999.000 -9999.000 -9999.000 -9999.000 -9999.000 -9999.000 -9999.000 -9999.000 -9999.000 1061.287 1061.005 1061.039 1061.221 1061.183 1061.210 1061.250 1060.663 1060.380 1060.196 1059.639 1059.401 1059.013 1058.922 1058.041 1056.541 1056.489 1057.830 1058.969 1059.352 1059.055 1058.969 1058.780 1058.731 1058.593 1058.389 1058.250 1058.164 1057.954 1058.125 1057.955 1057.719 1057.443 1057.473 1057.481 1057.360 1060.077 1062.764 1062.151 1062.120 1063.442 1064.175 1064.568 1064.956 1065.291 1064.027 1062.990 1063.323 1065.914 1065.684 1061.932 1059.265 1061.940 1061.566 1061.670 1061.918 1063.071 -9999.000 -9999.000
-9999.000 -9999.000 -9999.000 -9999.000 -9999.000 -9999.000 -9999.000 -9999.000 -9999.000 -9999.000 -9999.000 -9999.000 -9999.000 -9999.000 -9999.000 -9999.000 -9999.000 -9999.000 -9999.000 -9999.000 -9999.000 -9999.000 -9999.000 -9999.000 -9999.000 -9999.000 -9999.000 1061.100 1060.737 1060.830 1060.720 1060.614 1060.577 1060.393 1060.100 1059.975 1059.956 1060.171 1060.581 1059.881 1059.149 1058.618 1056.608 1056.618 1057.215 1059.422 1059.136 1059.296 1059.151 1058.933 1058.986 1058.820 1058.579 1058.458 1058.276 1058.310 1058.025 1058.284 1058.113 1058.078 1057.886 1057.683 1057.746 1057.473 1058.811 1062.941 1064.458 1064.023 1062.549 1062.998 1063.851 1064.800 1065.203 1065.616 1064.566 1064.000 1063.681 1065.090 1066.005 1062.221 1059.628 1062.129 1061.796 1062.290 1062.926 1063.878 -9999.000 -9999.000
-9999.000 -9999.000 -9999.000 -9999.000 -9999.000 -9999.000 -9999.000 -9999.000 -9999.000 -9999.000 -9999.000 -9999.000 -9999.000 -9999.000 -9999.000 -9999.000 -9999.000 -9999.000 -9999.000 -9999.000 -9999.000 -9999.000 -9999.000 -9999.000 -9999.000 1061.770 1061.706 1061.289 1061.303 1060.856 1060.168 1060.465 1060.790 1060.384 1060.245 1060.188 1059.976 1059.726 1059.533 1058.899 1056.821 1056.746 1056.889 1059.591 1059.458 1059.396 1059.642 1059.414 1059.152 1059.120 1058.852 1058.594 1058.601 1058.352 1058.127 1058.064 1058.049 1057.904 1057.945 1057.956 1057.636 1057.606 1057.481 1058.672 1063.676 1064.326 1064.841 1064.954 1063.821 1063.302 1063.752 1065.186 1065.534 1066.053 1066.088 1065.546 1064.647 1065.474 1066.160 1062.603 1059.834 1062.299 1062.360 1062.764 1063.401 1064.277 -9999.000 -9999.000
-9999.000 -9999.000 -9999.000 -9999.000 -9999.000 -9999.000 -9999.000 -9999.000 -9999.000 -9999.000 -9999.000 -9999.000 -9999.000 -9999.000 -9999.000 -9999.000 -9999.000 -9999.000 -9999.000 -9999.000 -9999.000 -9999.000 -9999.000 -9999.000 1061.468 1061.178 1061.332 1061.429 1060.658 1060.647 1060.379 1060.412 1060.020 1060.154 1060.153 1059.845 1058.662 1057.183 1057.021 1056.940 1056.655 1059.912 1059.794 1059.783 1059.784 1059.548 1059.405 1059.364 1059.142 1058.906 1058.846 1058.795 1058.711 1058.629 1058.360 1058.272 1058.167 1058.126 1058.019 1057.975 1057.927 1057.453 1058.299 1063.945 1064.532 1064.541 1065.186 1065.438 1065.087 1063.743 1064.211 1065.595 1065.986 1066.290 1066.813 1066.359 1065.345 1067.479 1065.640 1062.807 1060.337 1062.506 1062.807 1063.173 1063.598 1064.386 -9999.000 -9999.000
-9999.000 -9999.000 -9999.000 -9999.000 -9999.000 -9999.000 -9999.000 -9999.000 -9999.000 -9999.000 -9999.000 -9999.000 -9999.000 -9999.000 -9999.000 -9999.000 -9999.000 -9999.000 -9999.000 -9999.000 -9999.000 -9999.000 -9999.000 1059.086 1058.979 1058.895 1058.812 1058.636 1058.511 1058.298 1058.175 1057.990 1057.742 1057.542 1057.373 1057.259 1057.174 1057.180 1058.485 1060.398 1060.296 1059.909 1059.720 1059.764 1059.645 1059.420 1059.361 1059.216 1059.115 1059.007 1058.900 1058.736 1058.702 1058.440 1058.150 1058.403 1058.297 1058.050 1057.968 1057.938 1057.667 1057.542 1061.950 1064.378 1064.661 1064.567 1065.377 1065.745 1065.836 1064.494 1064.673 1065.676 1066.707 1067.089 1067.649 1066.990 1066.632 1067.111 1065.719 1063.107 1060.767 1061.932 1062.764 1063.439 1063.656 1065.336 -9999.000 -9999.000
-9999.000 -9999.000 -9999.000 -9999.000 -9999.000 -9999.000 -9999.000 -9999.000 -9999.000 -9999.000 -9999.000 -9999.000 -9999.000 -9999.000 -9999.000 -9999.000 -9999.000 -9999.000 -9999.000 -9999.000 -9999.000 -9999.000 1060.838 1060.293 1059.871 1059.579 1058.814 1058.588 1058.932 1058.555 1058.271 1057.994 1058.144 1058.929 1059.769 1060.384 1059.603 1060.716 1060.661 1060.427 1060.290 1060.081 1059.966 1059.824 1059.330 1059.473 1059.333 1059.072 1058.917 1058.552 1058.436 1058.544 1058.655 1058.701 1058.522 1058.476 1058.289 1057.996 1057.905 1057.732 1057.466 1058.303 1063.629 1064.329 1064.806 1065.191 1065.474 1065.817 1066.143 1065.796 1065.418 1065.674 1067.207 1067.667 1068.240 1067.778 1067.000 1067.782 1065.672 1063.512 1060.952 1062.755 1063.515 1063.804 1063.957 1066.404 1067.041 -9999.000
-9999.000 -9999.000 -9999.000 -9999.000 -9999.000 -9999.000 -9999.000 -9999.000 -9999.000 -9999.000 -9999.000 -9999.000 -9999.000 -9999.000 -9999.000 -9999.000 -9999.000 -9999.000 -9999.000 -9999.000 -9999.000 1062.394 1062.036 1061.766 1061.566 1061.336 1061.046 1061.002 1060.822 1061.509 1061.502 1061.424 1061.315 1060.792 1061.012 1060.967 1060.767 1060.712 1060.484 1060.433 1060.243 1060.063 1059.861 1059.713 1059.786 1059.608 1059.222 1059.237 1058.946 1058.963 1058.878 1058.756 1058.621 1058.570 1058.331 1058.091 1057.993 1057.995 1057.907 1057.972 1057.844 1061.108 1063.371 1064.049 1064.535 1065.019 1065.349 1065.855 1066.292 1066.627 1066.950 1066.182 1066.746 1067.647 1068.328 1068.606 1068.271 1067.775 1064.396 1064.037 1061.420 1061.850 1064.195 1064.146 1064.733 1067.311 1067.177 -9999.000
-9999.000 -9999.000 -9999.000 -9999.000 -9999.000 -9999.000 -9999.000 -9999.000 -9999.000 -9999.000 -9999.000 -9999.000 -9999.000 -9999.000 -9999.000 -9999.000 -9999.000 -9999.000 -9999.000 -9999.000 1062.861 1062.630 1062.365 1062.105 1061.939 1061.791 1061.568 1061.849 1061.920 1061.718 1061.484 1061.256 1061.036 1060.932 1060.987 1060.915 1060.641 1060.403 1060.400 1060.428 1060.316 1060.117 1059.961 1059.888 1059.731 1059.376 1059.319 1059.349 1059.312 1059.097 1058.887 1058.786 1058.513 1058.447 1058.167 1058.348 1058.361 1058.112 1057.983 1058.097 1058.326 1062.503 1063.474 1063.963 1064.441 1064.943 1065.687 1066.263 1066.763 1066.929 1067.029 1067.094 1067.348 1066.719 1067.100 1068.240 1069.022 1067.393 1064.757 1065.053 1061.805 1063.327 1063.929 1064.990 1065.396 1068.833 1067.831 -9999.000
-9999.000 -9999.000 -9999.000 -9999.000 -9999.000 -9999.000 -9999.000 -9999.000 -9999.000 -9999.000 -9999.000 -9999.000 -9999.000 -9999.000 -9999.000 -9999.000 -9999.000 -9999.000 -9999.000 1062.992 1062.857 1062.644 1062.550 1062.432 1062.177 1062.115 1062.103 1062.050 1061.970 1061.692 1061.659 1061.584 1061.373 1061.342 1061.104 1061.181 1060.958 1060.765 1060.471 1060.461 1060.330 1060.380 1060.196 1059.736 1059.870 1059.637 1059.488 1059.369 1059.142 1059.129 1059.001 1058.812 1058.691 1058.283 1058.392 1058.630 1058.405 1058.173 1058.080 1058.450 1058.960 1062.009 1063.802 1064.247 1064.825 1065.155 1066.038 1066.838 1067.106 1067.246 1067.397 1067.666 1068.593 1068.056 1067.972 1067.756 1069.233 1066.069 1065.167 1065.115 1062.076 1064.042 1063.899 1064.937 1065.801 1068.008 1068.554 -9999.000
-9999.000 -9999.000 -9999.000 -9999.000 -9999.000 -9999.000 -9999.000 -9999.000 -9999.000 -9999.000 -9999.000 -9999.000 -9999.000 -9999.000 -9999.000 -9999.000 -9999.000 -9999.000 1063.369 1063.335 1062.944 1062.740 1062.409 1062.303 1062.303 1062.109 1062.219 1062.215 1062.006 1061.802 1061.711 1061.454 1061.371 1061.266 1061.116 1061.042 1060.870 1060.876 1060.806 1060.630 1060.619 1060.341 1060.058 1060.040 1059.821 1059.786 1059.609 1059.447 1059.253 1059.087 1058.865 1058.684 1058.521 1058.223 1058.430 1058.761 1058.475 1058.161 1058.429 1059.025 1060.756 1061.685 1064.173 1064.547 1065.179 1065.677 1066.422 1067.281 1067.429 1067.753 1067.464 1067.622 1068.137 1068.515 1068.975 1069.117 1069.405 1065.839 1065.111 1065.653 1062.343 1064.705 1064.298 1065.556 1066.156 1068.792 1068.777 -9999.000
-9999.000 -9999.000 -9999.000 -9999.000 -9999.000 -9999.000 -9999.000 -9999.000 -9999.000 -9999.000 -9999.000 -9999.000 -9999.000 -9999.000 -9999.000 -9999.000 -9999.000 1063.404 1063.044 1063.016 1063.093 1062.837 1062.490 1062.432 1062.415 1062.339 1062.332 1062.160 1062.014 1061.792 1061.530 1061.203 1061.132 1060.873 1060.776 1060.728 1060.647 1060.443 1060.221 1060.178 1060.160 1060.279 1060.189 1059.986 1059.994 1059.750 1059.573 1059.285 1059.298 1059.266 1059.111 1058.954 1059.027 1058.539 1058.584 1058.746 1058.314 1058.571 1059.028 1059.470 1061.791 1062.496 1064.456 1065.156 1065.717 1066.194 1067.045 1067.547 1068.042 1068.239 1067.795 1067.880 1068.205 1068.546 1069.033 1069.781 1069.885 1066.314 1065.670 1065.954 1062.578 1065.052 1064.657 1065.723 1067.503 1069.151 1068.903 -9999.000
-9999.000 -9999.000 -9999.000 -9999.000 -9999.000 -9999.000 -9999.000 -9999.000 -9999.000 -9999.000 -9999.000 -9999.000 -9999.000 -9999.000 -9999.000 -9999.000 1063.406 1063.286 1063.021 1062.896 1062.943 1062.864 1062.496 1062.410 1062.346 1062.116 1061.899 1062.100 1062.061 1061.849 1061.624 1061.579 1061.538 1061.300 1061.219 1060.987 1060.886 1060.880 1060.881 1060.721 1060.417 1060.308 1060.145 1060.069 1059.925 1059.782 1059.696 1059.730 1059.645 1059.442 1059.245 1059.079 1058.607 1058.793 1058.649 1058.756 1058.681 1058.806 1059.319 1061.508 1061.323 1062.388 1063.995 1064.823 1065.550 1066.088 1066.958 1067.845 1068.454 1069.033 1068.598 1068.026 1068.177 1069.695 1069.512 1070.005 1069.727 1067.488 1066.192 1066.507 1062.899 1065.868 1065.140 1066.436 1067.878 1068.802 1069.022 -9999.000
-9999.000 -9999.000 -9999.000 -9999.000 -9999.000 -9999.000 -9999.000 -9999.000 -9999.000 -9999.000 -9999.000 -9999.000 -9999.000 -9999.000 -9999.000 1063.484 1063.387 1063.250 1063.114 1062.766 1062.764 1062.900 1062.722 1062.562 1062.423 1062.246 1062.243 1061.932 1061.819 1061.759 1061.811 1061.701 1061.613 1061.362 1061.287 1061.170 1061.127 1060.791 1060.493 1060.559 1060.484 1060.469 1060.293 1060.270 1060.070 1060.021 1059.867 1059.778 1059.537 1059.417 1059.213 1058.934 1058.697 1059.005 1058.896 1059.058 1059.138 1059.135 1060.921 1061.879 1061.885 1062.476 1064.592 1065.163 1065.457 1065.992 1066.709 1067.199 1068.206 1069.339 1068.842 1068.200 1068.233 1069.441 1070.373 1070.641 1070.395 1069.939 1066.578 1067.321 1063.110 1068.118 1067.450 1067.067 1068.316 1067.891 1069.476 -9999.000
-9999.000 -9999.000 -9999.000 -9999.000 -9999.000 -9999.000 -9999.000 -9999.000 -9999.000 -9999.000 -9999.000 -9999.000 -9999.000 -9999.000 1063.502 1063.148 1063.419 1063.135 1063.227 1062.780 1062.586 1062.616 1062.616 1062.509 1062.256 1062.165 1061.999 1062.156 1061.929 1061.692 1061.777 1061.681 1061.486 1061.279 1061.259 1061.135 1061.032 1060.850 1060.813 1060.494 1060.326 1060.053 1060.063 1059.900 1059.730 1059.921 1059.912 1059.733 1059.606 1059.336 1059.129 1058.915 1059.155 1058.783 1059.512 1059.400 1059.680 1061.576 1062.030 1061.805 1061.875 1064.894 1065.858 1066.206 1066.052 1066.432 1067.301 1067.665 1069.012 1069.632 1069.863 1068.702 1068.782 1070.590 1072.012 1072.155 1070.948 1070.177 1066.965 1067.035 1063.384 1066.513 1065.699 1067.533 1068.364 1068.549 1069.938 -9999.000
-9999.000 -9999.000 -9999.000 -9999.000 -9999.000 -9999.000 -9999.000 -9999.000 -9999.000 -9999.000 -9999.000 -9999.000 -9999.000 1063.266 1063.120 1063.191 1062.945 1062.872 1063.031 1063.090 1062.882 1062.375 1062.233 1062.177 1062.056 1061.854 1061.695 1061.618 1061.456 1061.501 1061.545 1061.550 1061.433 1061.376 1061.204 1061.072 1061.035 1060.745 1060.487 1060.411 1060.570 1060.409 1060.241 1060.107 1059.978 1059.789 1059.362 1059.506 1059.525 1059.196 1059.228 1059.038 1059.119 1059.908 1059.863 1061.149 1062.250 1062.213 1062.332 1062.189 1062.853 1065.533 1066.005 1066.770 1066.998 1067.292 1067.791 1068.959 1070.090 1070.144 1070.281 1070.173 1070.329 1071.012 1071.890 1072.301 1071.951 1070.465 1067.185 1067.341 1063.783 1066.599 1066.551 1068.692 1069.088 1069.225 1069.553 -9999.000
-9999.000 -9999.000 -9999.000 -9999.000 -9999.000 -9999.000 -9999.000 -9999.000 -9999.000 -9999.000 -9999.000 -9999.000 -9999.000 1063.055 1062.918 1062.674 1062.803 1063.025 1062.903 1062.849 1062.756 1062.694 1062.422 1062.335 1062.274 1062.216 1062.142 1062.015 1061.944 1061.838 1061.638 1061.334 1061.331 1061.286 1061.185 1061.026 1060.857 1060.791 1060.682 1060.431 1060.495 1060.436 1060.326 1060.036 1059.850 1059.748 1059.577 1059.396 1059.134 1059.170 1059.224 1059.822 1059.793 1060.224 1062.532 1062.574 1062.591 1062.605 1062.770 1063.603 1065.314 1065.767 1066.229 1066.761 1067.302 1068.072 1068.327 1069.632 1069.607 1069.842 1070.330 1071.052 1070.932 1071.307 1071.846 1072.211 1072.513 1072.079 1068.102 1067.875 1064.264 1066.178 1066.785 1068.863 1069.062 1069.373 1069.694 -9999.000
-9999.000 -9999.000 -9999.000 -9999.000 -9999.000 -9999.000 -9999.000 -9999.000 -9999.000 -9999.000 -9999.000 -9999.000 1063.989 1064.064 1063.985 1063.697 1062.610 1062.769 1062.793 1062.729 1062.675 1062.787 1062.494 1062.270 1062.189 1062.238 1062.222 1062.016 1061.906 1061.655 1061.532 1061.297 1061.303 1061.075 1061.083 1060.872 1060.756 1060.788 1060.662 1060.207 1060.292 1060.179 1060.031 1059.814 1059.627 1059.536 1059.806 1060.000 1059.840 1059.901 1059.969 1060.573 1061.782 1062.830 1062.392 1062.746 1062.995 1063.266 1063.351 1063.981 1065.505 1065.914 1066.200 1066.744 1067.252 1068.563 1069.404 1068.538 1069.525 1069.947 1070.477 1070.899 1071.492 1071.992 1072.289 1072.383 1072.983 1073.099 1070.060 1068.165 1064.299 1066.990 1068.266 1069.037 1069.325 1069.622 1071.332 1071.907
-9999.000 -9999.000 -9999.000 -9999.000 -9999.000 -9999.000 -9999.000 -9999.000 -9999.000 -9999.000 -9999.000 1063.968 1063.760 1064.074 1063.803 1063.562 1063.485 1062.353 1062.397 1062.777 1062.636 1062.321 1062.573 1062.604 1062.473 1061.986 1061.798 1061.977 1061.846 1061.756 1061.620 1061.412 1061.448 1061.550 1061.234 1061.009 1060.826 1060.728 1060.736 1060.618 1060.224 1060.039 1059.886 1059.802 1059.868 1060.393 1059.882 1060.354 1061.841 1062.007 1063.141 1062.979 1062.526 1062.404 1062.574 1062.923 1063.266 1063.590 1063.721 1064.013 1065.427 1065.679 1066.117 1066.631 1067.313 1068.763 1068.775 1069.129 1069.349 1069.858 1070.490 1070.691 1071.327 1071.727 1072.509 1072.665 1073.030 1073.813 1073.721 1068.850 1064.734 1067.853 1068.610 1069.571 1070.162 1070.034 1072.008 1071.801
-9999.000 -9999.000 -9999.000 -9999.000 -9999.000 -9999.000 -9999.000 -9999.000 -9999.000 -9999.000 1064.017 1064.035 1063.827 1063.456 1063.346 1063.126 1063.047 1063.022 1062.350 1062.245 1062.370 1062.470 1062.474 1061.985 1062.184 1061.889 1061.601 1061.565 1061.586 1061.560 1061.449 1061.397 1061.450 1061.335 1061.088 1060.979 1060.813 1060.726 1060.605 1060.195 1060.361 1060.317 1060.615 1060.421 1060.318 1059.868 1060.737 1061.004 1063.406 1062.734 1062.565 1062.484 1062.555 1062.494 1062.572 1063.068 1063.639 1064.032 1064.333 1064.744 1065.349 1065.622 1066.035 1066.526 1067.250 1067.670 1068.541 1069.414 1069.611 1070.012 1070.590 1070.630 1070.917 1071.871 1072.602 1073.002 1073.607 1074.058 1074.512 1068.924 1065.141 1068.845 1068.888 1069.791 1070.421 1070.194 1071.823 1072.389
-9999.000 -9999.000 -9999.000 -9999.000 -9999.000 -9999.000 -9999.000 -9999.000 -9999.000 1064.008 1064.047 1064.193 1064.164 1063.882 1063.217 1063.094 1063.101 1062.861 1062.690 1062.561 1062.189 1062.051 1062.042 1062.173 1062.154 1062.161 1061.972 1061.968 1062.031 1061.699 1061.438 1061.402 1061.310 1061.122 1060.785 1061.044 1061.033 1061.003 1060.990 1060.932 1060.734 1060.873 1060.647 1060.385 1060.035 1060.661 1061.335 1063.635 1062.534 1062.326 1062.414 1062.167 1062.464 1062.630 1062.716 1063.340 1064.278 1064.526 1064.720 1065.216 1065.513 1066.010 1066.335 1066.928 1067.632 1068.021 1068.560 1069.446 1069.898 1070.174 1070.780 1071.173 1072.228 1072.638 1072.815 1073.404 1073.988 1074.617 1075.334 1069.229 1066.049 1069.344 1069.503 1070.326 1070.535 1071.303 1072.815 1073.238
-9999.000 -9999.000 -9999.000 -9999.000 -9999.000 -9999.000 -9999.000 -9999.000 1064.226 1064.066 1064.199 1064.169 1063.868 1063.734 1063.519 1063.384 1063.385 1063.182 1062.880 1062.799 1062.593 1062.624 1062.198 1062.430 1062.173 1062.085 1062.020 1062.014 1061.913 1061.663 1061.834 1061.630 1061.468 1061.169 1061.315 1061.503 1061.414 1061.313 1061.220 1061.128 1060.834 1060.437 1060.350 1060.397 1060.897 1061.086 1063.591 1062.975 1062.644 1062.675 1062.649 1062.879 1062.980 1062.796 1062.884 1063.356 1063.989 1064.448 1065.046 1065.532 1065.995 1066.627 1067.318 1067.846 1068.761 1068.888 1069.217 1069.486 1070.123 1070.803 1071.229 1072.036 1072.546 1073.367 1074.160 1074.086 1074.234 1075.070 1076.069 1070.977 1066.468 1069.233 1070.193 1069.964 1070.548 1072.958 1073.373 1073.624
-9999.000 -9999.000 -9999.000 -9999.000 -9999.000 -9999.000 -9999.000 -9999.000 1064.340 1064.257 1064.233 1064.005 1063.673 1063.892 1063.922 1063.571 1063.368 1063.164 1062.695 1062.890 1064.137 1064.031 1063.926 1063.484 1063.127 1062.733 1062.405 1062.314 1062.306 1062.036 1061.749 1061.574 1061.314 1061.564 1061.522 1061.304 1061.188 1060.989 1060.774 1060.579 1060.806 1060.871 1060.695 1061.042 1061.246 1062.235 1063.318 1063.027 1062.634 1062.838 1062.920 1063.209 1063.394 1063.184 1063.503 1063.816 1064.020 1064.602 1065.256 1065.809 1066.935 1067.606 1068.787 1070.153 1070.848 1070.948 1070.895 1070.277 1071.316 1073.477 1072.107 1072.424 1073.114 1074.215 1074.804 1074.507 1076.384 1076.900 1077.212 1075.300 1069.390 1067.043 1070.676 1070.398 1070.828 1073.893 1073.966 1074.279
-9999.000 -9999.000 -9999.000 -9999.000 -9999.000 -9999.000 -9999.000 -9999.000 1064.375 1064.246 1063.947 1063.867 1064.154 1064.139 1063.805 1063.620 1063.698 1063.471 1063.698 1063.599 1063.532 1063.394 1063.431 1063.342 1063.329 1063.049 1062.727 1062.655 1062.648 1062.592 1062.381 1061.838 1061.682 1061.640 1061.538 1061.274 1061.074 1060.989 1061.169 1061.253 1060.934 1061.189 1061.493 1061.304 1061.631 1063.756 1063.411 1063.184 1062.777 1062.767 1062.907 1063.439 1063.524 1063.411 1063.455 1063.790 1064.378 1064.610 1066.087 1066.543 1068.016 1069.878 1071.015 1072.827 1073.857 1074.107 1073.158 1075.215 1074.779 1075.465 1073.673 1074.167 1074.014 1074.362 1074.919 1075.636 1077.978 1079.477 1078.233 1076.115 1072.686 1066.839 1070.653 1071.019 1073.139 1074.722 1074.977 1077.267
-9999.000 -9999.000 -9999.000 -9999.000 -9999.000 -9999.000 -9999.000 -9999.000 1064.272 1064.285 1064.380 1064.206 1064.081 1064.016 1063.849 1064.067 1063.581 1063.544 1063.777 1063.488 1063.228 1063.159 1063.109 1062.915 1062.902 1063.109 1063.078 1062.718 1062.589 1062.462 1062.597 1062.453 1062.163 1061.773 1061.397 1061.743 1061.406 1061.583 1061.387 1061.178 1061.687 1061.691 1061.661 1061.453 1063.582 1063.693 1063.601 1063.340 1063.213 1063.210 1063.403 1063.378 1063.131 1063.155 1063.252 1063.908 1064.605 1065.604 1067.041 1068.809 1070.733 1072.179 1073.504 1075.320 1077.422 1076.928 1076.745 1076.214 1076.668 1078.990 1077.310 1076.472 1075.321 1075.045 1075.470 1075.852 1077.314 1078.930 1078.214 1077.588 1074.636 1070.997 1067.878 1071.818 1072.982 1075.252 1076.513 1086.106
-9999.000 -9999.000 -9999.000 -9999.000 -9999.000 -9999.000 -9999.000 1065.008 1064.904 1064.874 1064.818 1064.593 1064.611 1064.472 1063.973 1063.637 1063.555 1063.403 1063.183 1063.222 1063.053 1062.963 1062.732 1062.848 1062.807 1062.677 1062.597 1062.709 1062.534 1062.485 1062.394 1062.325 1062.116 1062.091 1062.017 1061.962 1061.830 1061.610 1061.484 1061.607 1061.899 1061.557 1061.740 1063.751 1063.524 1063.621 1063.626 1063.315 1063.238 1063.021 1063.005 1063.065 1063.448 1063.438 1063.719 1064.678 1065.450 1067.083 1069.022 1071.760 1073.608 1075.676 1077.595 1078.663 1080.918 1082.368 1080.892 1082.538 1082.893 1082.412 1081.349 1079.814 1078.477 1077.741 1077.114 1076.253 1076.376 1077.307 1077.281 1077.591 1078.536 1073.792 1068.424 1069.930 1072.174 1075.093 1077.090 1088.590
-9999.000 -9999.000 -9999.000 -9999.000 -9999.000 -9999.000 -9999.000 1065.568 1065.383 1065.484 1065.189 1064.891 1064.579 1064.363 1063.828 1063.750 1063.556 1063.449 1063.553 1063.427 1063.556 1063.577 1063.286 1063.191 1063.095 1063.042 1062.805 1062.648 1062.597 1062.487 1062.403 1062.266 1061.887 1061.946 1061.717 1062.056 1061.704 1061.774 1061.694 1061.920 1062.111 1063.522 1064.287 1063.608 1063.472 1063.297 1063.263 1063.225 1062.884 1062.789 1063.975 1065.319 1067.692 1070.281 1070.242 1067.115 1066.807 1069.604 1071.451 1074.489 1077.982 1080.297 1082.138 1083.502 1085.028 1087.079 1087.710 1087.728 1088.017 1087.339 1086.166 1083.681 1082.082 1080.507 1079.568 1078.331 1077.064 1076.974 1076.962 1077.694 1079.183 1078.575 1073.773 1068.738 1071.238 1072.928 1083.772 1095.457
-9999.000 -9999.000 -9999.000 -9999.000 -9999.000 -9999.000 -9999.000 1065.640 1065.821 1065.607 1065.394 1065.279 1064.688 1064.540 1064.041 1063.885 1063.915 1063.944 1064.173 1064.045 1063.972 1064.438 1063.549 1063.223 1063.010 1062.887 1062.880 1062.707 1062.398 1062.740 1062.991 1062.887 1062.998 1062.826 1062.857 1062.549 1063.716 1065.546 1065.603 1065.433 1065.086 1063.966 1063.366 1063.421 1063.081 1062.818 1062.946 1066.882 1066.187 1069.324 1072.491 1079.684 1083.517 1084.283 1080.784 1078.530 1078.425 1080.014 1089.099 1087.502 1090.342 1087.754 1087.831 1088.542 1090.235 1092.112 1094.641 1093.633 1094.656 1092.820 1091.427 1088.506 1085.874 1083.939 1082.254 1080.339 1078.662 1077.977 1076.941 1079.489 1081.535 1081.141 1086.355 1072.442 1069.502 1071.791 1076.673 1097.763
-9999.000 -9999.000 -9999.000 -9999.000 -9999.000 -9999.000 -9999.000 1066.095 1065.951 1065.741 1065.582 1065.244 1065.091 1064.920 1064.823 1064.596 1064.539 1064.584 1064.153 1064.613 1065.242 1065.262 1064.775 1064.778 1064.093 1064.182 1064.080 1064.262 1064.467 1064.268 1063.934 1063.594 1063.836 1063.964 1064.259 1065.288 1065.576 1065.628 1071.582 1071.001 1069.402 1067.631 1064.096 1063.255 1066.714 1067.745 1069.097 1075.072 1079.120 1081.019 1084.633 1093.115 1095.703 1094.876 1092.223 1092.324 1094.476 1095.033 1101.908 1104.584 1103.067 1100.960 1094.790 1093.657 1096.111 1098.033 1101.372 1100.444 1101.889 1100.130 1096.519 1092.731 1091.208 1087.967 1085.552 1083.239 1082.056 1081.114 1084.460 1087.703 1091.159 1098.619 1101.928 1096.240 1075.930 1070.523 1071.478 1082.118
-9999.000 -9999.000 -9999.000 -9999.000 -9999.000 -9999.000 1066.338 1066.135 1066.031 1065.855 1065.746 1065.341 1065.436 1065.432 1065.191 1064.954 1064.842 1064.642 1065.132 1065.489 1065.112 1065.115 1065.106 1065.080 1064.854 1064.691 1064.262 1064.407 1064.447 1064.375 1063.921 1063.586 1063.715 1064.850 1065.202 1069.244 1073.791 1076.287 1078.126 1077.829 1076.179 1072.652 1073.021 1073.945 1076.714 1079.399 1080.160 1083.632 1088.852 1092.069 1095.013 1104.579 1106.591 1106.187 1103.354 1105.444 1109.921 1112.695 1114.501 1115.175 1113.352 1110.351 1100.612 1098.892 1102.434 1104.769 1107.427 1107.303 1107.565 1105.765 1102.397 1098.432 1096.060 1093.688 1089.466 1088.245 1090.560 1091.910 1096.990 1099.829 1106.100 1110.999 1117.342 1118.033 1092.162 1070.236 1071.492 1073.648
-9999.000 -9999.000 -9999.000 -9999.000 -9999.000 -9999.000 1066.406 1066.259 1066.107 1066.031 1065.935 1065.692 1065.952 1065.926 1065.511 1065.247 1064.991 1065.282 1065.725 1065.659 1065.562 1065.442 1065.259 1064.861 1063.861 1064.811 1064.719 1064.468 1064.435 1064.541 1064.478 1064.242 1065.222 1065.999 1069.588 1074.638 1079.848 1083.335 1085.103 1085.533 1083.253 1082.041 1083.375 1084.194 1087.143 1089.909 1091.946 1096.178 1099.794 1104.446 1110.645 1115.082 1117.960 1117.723 1117.432 1119.921 1123.197 1124.387 1125.196 1123.609 1121.741 1113.146 1109.845 1107.962 1108.722 1111.636 1115.039 1116.432 1115.750 1112.897 1109.418 1106.412 1101.455 1097.578 1099.441 1103.267 1105.534 1106.255 1110.971 1114.829 1119.490 1125.880 1129.479 1129.344 1106.617 1088.115 1071.146 -9999.000
-9999.000 -9999.000 -9999.000 -9999.000 -9999.000 -9999.000 1066.503 1066.472 1066.312 1066.207 1066.052 1066.127 1066.236 1066.558 1065.910 1065.512 1065.714 1066.005 1065.723 1065.915 1066.000 1065.701 1065.316 1064.948 1065.016 1065.000 1064.746 1064.808 1064.800 1064.646 1064.117 1068.828 1072.614 1071.681 1076.070 1082.001 1087.636 1091.535 1092.611 1094.617 1091.690 1092.296 1094.866 1096.779 1098.326 1100.375 1104.642 1108.866 1113.261 1111.444 1122.143 1124.892 1128.785 1129.998 1131.129 1134.202 1135.594 1132.500 1131.587 1132.641 1126.151 1122.293 1121.957 1120.958 1117.692 1119.139 1121.018 1122.160 1122.038 1119.821 1115.333 1111.624 1109.075 1110.505 1112.797 1116.402 1119.813 1120.439 1124.595 1128.203 1132.780 1134.544 1136.248 1135.138 1141.662 1129.524 1081.886 -9999.000
-9999.000 -9999.000 -9999.000 -9999.000 -9999.000 -9999.000 1066.568 1066.497 1066.509 1066.446 1066.266 1066.347 1066.638 1067.358 1066.397 1066.590 1066.328 1066.842 1066.241 1066.128 1066.164 1065.814 1065.938 1065.751 1065.151 1065.077 1064.924 1064.683 1065.452 1067.037 1071.464 1077.669 1083.273 1081.649 1083.497 1088.114 1094.154 1099.880 1100.160 1103.618 1102.154 1105.031 1106.742 1108.539 1113.007 1113.424 1116.749 1122.344 1126.187 1131.479 1135.100 1137.265 1139.627 1141.832 1144.589 1146.686 1144.924 1144.487 1138.857 1138.221 1134.447 1132.771 1131.962 1127.661 1129.350 1129.464 1128.739 1130.014 1128.933 1126.998 1120.641 1120.268 1121.264 1122.548 1125.730 1129.309 1131.962 1131.395 1137.004 1139.525 1139.180 1142.646 1141.334 1145.249 1148.881 1146.142 1093.162 -9999.000
-9999.000 -9999.000 -9999.000 -9999.000 -9999.000 1067.935 1066.994 1067.473 1067.328 1067.601 1067.606 1067.581 1067.670 1068.640 1067.473 1067.128 1066.810 1066.448 1066.375 1066.300 1066.228 1066.029 1066.068 1065.868 1065.784 1065.575 1067.062 1073.157 1077.959 1078.207 1083.193 1090.949 1094.142 1094.905 1097.242 1100.904 1102.749 1106.979 1111.829 1113.740 1114.794 1119.123 1122.933 1124.921 1129.212 1130.876 1132.221 1137.219 1140.089 1144.757 1144.972 1149.061 1151.289 1154.003 1155.476 1158.126 1153.224 1151.296 1148.058 1145.081 1141.039 1144.652 1142.396 1139.213 1142.443 1141.268 1140.303 1136.652 1136.115 1132.924 1131.186 1129.060 1129.560 1131.799 1136.806 1142.246 1143.965 1145.714 1147.754 1149.291 1150.161 1152.224 1155.451 1156.024 1156.496 1157.501 -9999.000 -9999.000
-9999.000 -9999.000 -9999.000 -9999.000 -9999.000 1068.486 1069.080 1069.523 1069.797 1069.730 1069.759 1070.838 1069.723 1070.289 1069.622 1068.014 1067.177 1066.798 1066.574 1066.839 1066.543 1066.705 1066.628 1067.435 1070.172 1074.361 1079.755 1087.561 1093.529 1094.162 1095.834 1103.075 1106.618 1109.277 1111.812 1115.372 1117.331 1115.630 1120.789 1121.382 1126.973 1133.005 1135.867 1139.647 1144.216 1143.939 1146.480 1150.964 1153.604 1158.102 1156.523 1161.915 1162.483 1165.359 1165.598 1163.641 1162.833 1156.609 1159.633 1152.687 1148.382 1154.748 1153.758 1149.099 1154.030 1153.852 1147.809 1145.011 1142.067 1141.074 1137.462 1135.689 1136.720 1140.106 1143.399 1150.294 1153.229 1154.494 1155.493 1154.701 1156.756 1159.587 1162.691 1163.245 1163.204 1162.362 -9999.000 -9999.000
-9999.000 -9999.000 -9999.000 -9999.000 -9999.000 1070.934 1071.484 1071.440 1071.508 1071.744 1072.201 1073.317 1073.589 1070.775 1071.663 1069.807 1068.982 1068.196 1067.530 1067.332 1067.087 1072.131 1072.747 1076.196 1085.043 1090.953 1096.238 1102.339 1109.370 1110.263 1113.469 1118.255 1120.103 1124.408 1127.527 1131.227 1134.264 1132.524 1131.397 1130.174 1141.528 1149.708 1155.568 1155.678 1164.757 1158.914 1162.703 1166.446 1170.879 1172.712 1174.156 1175.408 1177.725 1176.285 1177.774 1170.875 1170.551 1165.767 1166.998 1160.031 1156.378 1159.089 1161.285 1158.737 1164.700 1165.997 1154.427 1152.954 1149.669 1145.624 1145.803 1145.859 1145.873 1148.778 1152.024 1155.707 1158.585 1159.905 1160.528 1160.039 1161.629 1163.743 1162.314 1163.319 1161.728 1160.211 -9999.000 -9999.000
-9999.000 -9999.000 -9999.000 -9999.000 -9999.000 1073.215 1074.030 1074.177 1073.653 1073.747 1074.429 1074.863 1074.867 1072.253 1073.591 1072.293 1071.630 1071.686 1070.037 1067.324 1070.170 1079.053 1085.883 1091.018 1100.055 1107.884 1116.999 1147.197 1125.717 1130.564 1131.597 1133.477 1133.536 1138.742 1145.580 1149.243 1152.789 1163.918 1169.812 1143.368 1151.175 1177.707 1185.854 1180.278 1178.414 1177.222 1179.996 1183.900 1191.145 1189.510 1190.786 1188.352 1189.462 1189.491 1188.094 1180.531 1178.226 1176.779 1174.789 1170.154 1167.517 1166.536 1168.849 1169.933 1174.219 1168.179 1162.808 1159.268 1156.882 1156.175 1155.700 1155.439 1156.003 1157.434 1159.922 1162.655 1162.717 1164.012 1166.101 1168.214 1166.337 1164.791 1163.709 1161.394 1159.052 -9999.000 -9999.000 -9999.000
-9999.000 -9999.000 -9999.000 -9999.000 -9999.000 1076.312 1076.789 1077.736 1076.885 1077.907 1077.661 1077.805 1077.456 1072.216 1076.685 1076.241 1076.558 1076.689 1073.799 1074.000 1081.425 1088.913 1093.454 1107.766 1119.128 1128.979 1144.926 1167.377 1143.619 1154.443 1158.184 1156.537 1153.701 1161.284 1162.528 1178.487 1173.542 1188.142 1187.168 1174.631 1156.135 1198.338 1198.974 1194.619 1194.688 1196.296 1204.871 1208.681 1209.783 1207.565 1200.676 1200.577 1200.589 1202.555 1198.176 1191.498 1187.826 1188.305 1184.101 1181.783 1179.622 1177.050 1178.488 1180.753 1183.317 1171.777 1171.018 1166.073 1166.384 1166.196 1166.214 1165.908 1165.735 1166.485 1166.400 1169.065 1169.279 1171.987 1171.005 1171.179 1167.244 1167.159 1163.487 1160.412 1149.342 -9999.000 -9999.000 -9999.000
-9999.000 -9999.000 -9999.000 -9999.000 1078.786 1079.812 1080.496 1081.510 1080.819 1080.934 1080.731 1080.437 1079.733 1076.053 1081.809 1082.601 1082.681 1082.043 1082.410 1085.779 1092.610 1100.465 1110.360 1123.309 1139.135 1153.593 1165.586 1173.917 1182.063 1186.791 1181.171 1186.599 1187.893 1174.406 1197.472 1204.161 1204.480 1204.284 1204.704 1201.649 1188.369 1185.884 1207.892 1209.093 1211.811 1211.212 1220.170 1222.971 1223.133 1220.189 1210.952 1213.015 1211.104 1214.569 1207.259 1203.536 1199.226 1198.742 1195.551 1192.923 1190.371 1187.359 1189.095 1194.287 1189.798 1180.172 1176.924 1173.916 1173.736 1173.762 1174.172 1173.294 1175.583 1173.729 1173.346 1172.332 1175.467 1178.262 1176.785 1170.121 1167.769 1167.077 1164.166 1154.281 1141.465 -9999.000 -9999.000 -9999.000
-9999.000 -9999.000 -9999.000 -9999.000 1082.185 1083.096 1084.417 1085.231 1084.074 1084.607 1084.488 1083.353 1082.622 1079.536 1086.348 1088.552 1088.767 1089.789 1092.292 1096.570 1103.583 1112.172 1123.351 1131.435 1145.153 1162.059 1174.156 1181.851 1189.946 1195.689 1199.298 1198.908 1201.161 1192.290 1202.884 1214.199 1214.562 1216.432 1215.186 1213.293 1210.668 1202.680 1200.643 1222.256 1222.678 1227.069 1231.489 1233.999 1234.375 1228.578 1224.252 1225.286 1224.259 1223.827 1216.392 1214.398 1210.683 1210.277 1207.123 1204.649 1202.237 1197.886 1203.672 1201.148 1190.052 1187.529 1184.809 1182.540 1181.104 1181.693 1180.238 1178.071 1179.846 1179.141 1176.783 1178.266 1182.747 1180.742 1179.475 1172.141 1168.970 1169.197 1163.742 1151.940 -9999.000 -9999.000 -9999.000 -9999.000
-9999.000 -9999.000 -9999.000 -9999.000 1085.962 1086.978 1088.279 1089.327 1088.274 1088.385 1088.153 1087.021 1084.176 1086.095 1090.623 1095.377 1095.889 1096.956 1101.877 1107.272 1114.899 1125.165 1136.987 1153.868 1164.760 1166.932 1179.207 1191.001 1199.002 1203.676 1208.457 1211.140 1212.690 1213.708 1215.458 1223.941 1227.051 1226.520 1227.492 1224.218 1223.463 1222.624 1217.646 1214.068 1236.138 1238.941 1242.779 1245.843 1245.143 1238.382 1237.882 1237.767 1236.909 1235.234 1230.705 1228.112 1226.972 1223.389 1220.550 1218.016 1213.913 1210.170 1212.054 1203.105 1199.082 1196.934 1193.066 1189.631 1189.059 1188.306 1186.857 1184.428 1183.203 1181.464 1179.750 1184.010 1188.094 1184.272 1177.848 1171.388 1171.597 1169.568 1164.189 1157.212 -9999.000 -9999.000 -9999.000 -9999.000
-9999.000 -9999.000 -9999.000 -9999.000 1089.223 1090.962 1092.759 1093.721 1093.356 1092.649 1092.433 1090.337 1087.834 1086.913 1092.449 1100.469 1103.032 1105.784 1112.918 1118.208 1126.116 1138.377 1152.530 1165.734 1177.074 1186.822 1195.098 1201.519 1208.051 1214.104 1217.927 1221.172 1225.111 1228.041 1228.228 1234.861 1237.401 1238.231 1238.934 1236.989 1235.658 1236.316 1240.494 1239.167 1247.236 1251.536 1253.576 1256.745 1256.161 1254.456 1254.449 1254.458 1253.820 1252.242 1249.608 1246.029 1240.755 1236.345 1233.753 1229.969 1225.111 1224.054 1216.290 1209.416 1208.931 1204.507 1201.105 1197.560 1195.871 1194.802 1193.623 1192.159 1187.605 1185.636 1182.361 1185.996 1187.876 1184.662 1177.531 1173.136 1173.955 1168.847 1163.771 1158.779 -9999.000 -9999.000 -9999.000 -9999.000
-9999.000 -9999.000 -9999.000 1088.463 1091.987 1095.151 1098.048 1098.257 1098.451 1097.918 1097.143 1093.458 1090.519 1095.051 1100.704 1107.508 1109.710 1115.311 1120.946 1128.779 1138.138 1149.224 1165.003 1177.415 1190.033 1197.521 1205.176 1213.038 1218.756 1224.285 1228.507 1232.386 1236.512 1241.713 1242.293 1246.978 1249.439 1250.734 1251.663 1250.767 1248.129 1246.053 1250.696 1251.371 1258.589 1264.065 1266.207 1268.411 1269.578 1270.594 1271.035 1276.725 1278.204 1275.904 1270.871 1262.367 1256.513 1251.640 1248.214 1241.887 1237.250 1232.178 1225.453 1220.452 1217.459 1212.014 1208.022 1205.412 1202.377 1200.033 1198.256 1194.509 1190.086 1187.906 1184.888 1183.631 1184.314 1181.699 1178.517 1176.640 1172.071 1168.991 1166.223 -9999.000 -9999.000 -9999.000 -9999.000 -9999.000
-9999.000 -9999.000 -9999.000 1091.043 1094.664 1098.877 1102.605 1103.175 1102.922 1103.512 1098.925 1095.930 1098.057 1103.650 1109.790 1115.209 1119.177 1125.260 1132.641 1136.831 1147.447 1161.290 1176.399 1188.607 1199.033 1208.333 1215.425 1223.869 1230.894 1235.873 1240.535 1244.570 1247.928 1254.452 1257.466 1260.849 1262.074 1264.418 1265.112 1264.536 1261.455 1259.432 1266.005 1262.473 1272.580 1277.942 1285.062 1286.961 1287.185 1287.787 1303.526 1295.971 1291.808 1287.315 1284.792 1277.750 1271.779 1266.017 1259.860 1256.146 1249.152 1243.633 1235.419 1230.294 1226.050 1220.918 1216.641 1211.495 1208.880 1204.881 1204.795 1199.199 1193.798 1189.852 1187.185 1184.584 1181.864 1180.397 1179.055 1177.527 1173.038 1170.495 1166.648 -9999.000 -9999.000 -9999.000 -9999.000 -9999.000
-9999.000 -9999.000 -9999.000 1093.855 1097.353 1101.172 1106.955 1108.380 1108.645 1106.779 1105.614 1104.253 1110.719 1113.948 1120.934 1124.394 1131.251 1128.158 1136.645 1146.849 1158.311 1170.909 1188.422 1200.283 1212.680 1223.064 1238.074 1239.874 1239.917 1247.769 1251.619 1257.224 1261.830 1267.780 1273.429 1275.510 1275.515 1277.898 1279.781 1280.109 1275.891 1282.439 1294.412 1289.982 1291.426 1296.706 1301.625 1306.596 1305.078 1310.620 1316.463 1309.391 1306.940 1306.594 1298.803 1291.222 1280.848 1277.447 1272.041 1267.361 1261.390 1253.729 1244.808 1239.131 1232.219 1230.324 1224.545 1219.504 1216.925 1216.948 1212.238 1203.631 1197.998 1193.509 1190.178 1188.697 1187.870 1187.467 1184.716 1180.868 1176.644 1173.999 1168.576 -9999.000 -9999.000 -9999.000 -9999.000 -9999.000
-9999.000 -9999.000 -9999.000 1097.119 1099.790 1104.350 1109.246 1112.788 1113.513 1111.903 1113.451 1114.649 1121.830 1128.177 1135.026 1136.705 1142.524 1134.769 1148.145 1151.206 1172.495 1183.825 1194.729 1211.239 1224.267 1237.246 1246.716 1252.502 1252.518 1257.968 1263.996 1270.764 1278.746 1289.515 1289.473 1291.679 1291.630 1292.757 1293.179 1297.161 1321.087 1299.464 1312.497 1306.074 1312.348 1315.247 1321.320 1323.387 1322.181 1324.972 1327.282 1322.611 1320.033 1319.034 1308.913 1299.442 1292.896 1287.246 1281.784 1277.483 1269.335 1261.818 1253.137 1247.548 1242.925 1239.139 1234.820 1231.263 1233.970 1234.736 1228.357 1217.064 1205.085 1201.136 1199.238 1198.829 1198.288 1197.165 1192.607 1186.328 1181.459 1177.549 -9999.000 -9999.000 -9999.000 -9999.000 -9999.000 -9999.000
-9999.000 -9999.000 1099.820 1102.863 1103.894 1106.244 1111.202 1116.694 1120.485 1117.400 1122.513 1124.955 1133.476 1139.368 1144.661 1153.053 1161.262 1147.402 1160.786 1165.762 1170.847 1183.936 1200.343 1218.312 1228.506 1241.995 1253.821 1263.234 1266.714 1271.149 1276.806 1283.360 1292.305 1299.338 1304.964 1308.518 1320.383 1334.644 1345.128 1340.170 1340.832 1331.375 1318.984 1324.996 1329.453 1332.101 1333.997 1335.531 1335.681 1336.699 1336.720 1334.352 1330.772 1325.068 1315.947 1307.703 1301.729 1296.699 1292.201 1283.814 1277.368 1269.652 1261.992 1253.469 1251.364 1247.847 1246.093 1247.018 1249.041 1247.927 1242.994 1232.389 1223.182 1216.512 1211.256 1209.915 1206.082 1200.584 1194.877 1190.601 1184.588 1180.299 -9999.000 -9999.000 -9999.000 -9999.000 -9999.000 -9999.000
-9999.000 -9999.000 1106.465 1108.913 1109.338 1107.400 1112.370 1119.161 1125.371 1124.584 1132.902 1135.933 1144.636 1151.740 1159.743 1165.406 1173.578 1163.056 1167.097 1176.493 1191.323 1197.271 1213.100 1220.886 1238.163 1250.661 1263.016 1274.616 1280.130 1284.475 1290.416 1296.110 1303.156 1315.391 1320.599 1325.807 1344.787 1360.234 1356.938 1358.442 1352.343 1345.311 1336.609 1336.834 1343.400 1345.950 1347.719 1349.400 1349.863 1348.960 1348.656 1345.969 1340.832 1334.658 1325.653 1318.208 1313.263 1307.991 1301.424 1293.937 1286.566 1279.034 1271.387 1265.242 1260.170 1260.214 1259.704 1257.479 1256.784 1255.204 1252.115 1243.159 1234.457 1227.519 1222.233 1218.118 1212.764 1208.177 1195.719 1190.266 1184.301 1181.624 -9999.000 -9999.000 -9999.000 -9999.000 -9999.000 -9999.000
-9999.000 -9999.000 1113.965 1116.651 1115.227 1118.434 1124.381 1129.451 1137.068 1129.849 1143.271 1149.481 1158.809 1169.909 1175.462 1181.692 1188.434 1180.233 1183.814 1195.388 1209.068 1215.500 1228.052 1231.326 1243.350 1258.613 1270.212 1281.204 1292.724 1298.101 1305.239 1314.369 1322.580 1338.731 1338.826 1356.268 1370.610 1371.323 1367.431 1368.127 1362.667 1356.804 1353.699 1348.885 1356.325 1361.993 1363.587 1367.866 1364.848 1362.830 1361.311 1358.585 1354.016 1345.634 1341.151 1332.567 1328.088 1321.299 1313.130 1305.141 1297.349 1289.724 1280.887 1279.663 1277.966 1276.169 1272.206 1269.823 1266.390 1262.386 1258.353 1249.392 1240.035 1233.277 1227.539 1224.078 1219.088 1209.690 1201.838 1194.581 1186.236 -9999.000 -9999.000 -9999.000 -9999.000 -9999.000 -9999.000 -9999.000
-9999.000 -9999.000 1120.311 1124.030 1122.933 1130.572 1137.683 1142.707 1150.275 1138.846 1158.829 1167.479 1175.851 1181.538 1191.846 1197.844 1204.144 1193.124 1200.535 1212.728 1217.820 1229.490 1237.977 1249.009 1255.170 1269.107 1282.150 1293.602 1304.846 1311.942 1325.819 1334.951 1335.520 1351.777 1363.453 1371.508 1381.453 1384.197 1380.225 1379.075 1371.689 1367.614 1363.614 1363.758 1368.725 1374.253 1379.158 1383.111 1379.119 1380.800 1380.381 1378.596 1368.398 1359.912 1352.472 1348.032 1341.430 1333.232 1324.868 1315.764 1307.865 1299.066 1294.692 1296.058 1294.911 1290.784 1287.257 1287.065 1283.122 1277.663 1268.989 1259.622 1248.468 1241.284 1231.202 1226.844 1222.183 1215.513 1207.002 1198.932 1190.417 -9999.000 -9999.000 -9999.000 -9999.000 -9999.000 -9999.000 -9999.000
-9999.000 1126.396 1128.471 1131.870 1138.165 1143.591 1150.964 1157.545 1152.146 1149.010 1161.752 1177.576 1195.304 1205.732 1208.101 1216.243 1220.877 1208.460 1218.453 1226.347 1227.094 1239.238 1252.059 1261.950 1273.929 1270.583 1294.504 1317.420 1323.606 1330.532 1339.658 1348.724 1354.013 1361.237 1375.805 1391.613 1397.279 1398.909 1398.940 1394.046 1383.740 1380.315 1374.462 1377.202 1382.985 1386.289 1392.328 1396.845 1396.944 1401.683 1400.467 1393.581 1383.904 1373.752 1365.085 1360.015 1353.133 1345.955 1337.657 1327.171 1318.404 1306.866 1309.941 1308.084 1310.613 1306.449 1302.395 1299.458 1294.059 1290.459 1282.855 1271.602 1260.939 1251.206 1241.383 1231.822 1224.833 1218.792 1208.372 1199.222 1188.128 -9999.000 -9999.000 -9999.000 -9999.000 -9999.000 -9999.000 -9999.000
-9999.000 1138.325 1140.421 1139.591 1151.568 1158.829 1168.848 1171.499 1163.378 1154.489 1161.328 1179.925 1193.369 1216.451 1229.138 1230.961 1230.835 1231.752 1236.404 1241.480 1245.081 1241.755 1263.817 1275.048 1292.200 1304.578 1320.903 1331.742 1336.582 1344.131 1353.264 1361.036 1370.407 1393.581 1391.221 1407.444 1412.608 1411.592 1411.847 1407.049 1399.333 1391.060 1390.260 1387.899 1397.651 1402.203 1406.377 1412.137 1416.521 1417.693 1413.357 1406.606 1397.255 1388.965 1380.951 1372.489 1365.628 1359.322 1352.090 1341.870 1326.116 1322.594 1318.712 1319.045 1320.920 1315.784 1308.436 1304.812 1301.949 1297.011 1292.000 1282.768 1271.347 1262.116 1251.833 1240.692 1232.151 1221.413 1207.769 1196.424 -9999.000 -9999.000 -9999.000 -9999.000 -9999.000 -9999.000 -9999.000 -9999.000
-9999.000 1148.298 1154.100 1157.145 1158.293 1169.681 1182.097 1187.606 1183.953 1170.913 1171.086 1181.625 1222.174 1222.528 1237.906 1242.215 1245.668 1253.537 1254.326 1254.867 1266.714 1271.056 1275.995 1292.667 1306.334 1318.961 1335.603 1344.583 1350.987 1358.360 1374.816 1397.202 1406.174 1407.873 1413.854 1423.784 1426.968 1426.333 1425.469 1420.229 1413.955 1409.607 1403.851 1404.226 1417.301 1419.677 1423.915 1428.516 1433.552 1430.369 1425.019 1416.848 1407.531 1399.944 1392.871 1384.435 1378.250 1365.623 1359.655 1350.131 1342.777 1338.937 1332.973 1330.489 1327.431 1319.642 1313.071 1310.509 1306.513 1302.718 1296.966 1287.463 1278.436 1268.984 1259.967 1252.148 1237.607 1222.516 1212.671 1206.692 -9999.000 -9999.000 -9999.000 -9999.000 -9999.000 -9999.000 -9999.000 -9999.000
-9999.000 1159.510 1168.800 1172.068 1166.297 1185.345 1195.195 1203.847 1215.500 1213.578 1181.550 1190.161 1204.724 1217.925 1244.958 1252.122 1260.609 1266.781 1268.339 1268.307 1279.170 1286.918 1290.856 1308.556 1322.439 1330.531 1347.134 1355.403 1367.968 1384.926 1398.942 1409.701 1418.650 1423.520 1429.658 1444.656 1447.395 1444.979 1440.430 1440.249 1433.940 1431.013 1428.617 1421.360 1435.028 1436.817 1440.749 1446.020 1447.447 1442.036 1435.389 1428.869 1420.700 1417.183 1406.499 1393.593 1381.453 1381.124 1378.268 1370.931 1362.769 1358.762 1347.276 1340.056 1330.691 1322.829 1317.901 1315.142 1311.811 1307.133 1300.387 1292.669 1283.436 1274.938 1265.766 1257.222 1241.012 1229.813 1224.074 1219.963 -9999.000 -9999.000 -9999.000 -9999.000 -9999.000 -9999.000 -9999.000 -9999.000
1171.190 1176.890 1183.906 1189.221 1191.037 1187.790 1207.654 1218.166 1226.555 1208.638 1198.980 1195.639 1216.873 1235.106 1256.777 1265.043 1276.128 1283.480 1288.422 1295.061 1301.796 1305.288 1306.535 1313.167 1328.984 1344.209 1357.861 1373.064 1375.984 1392.728 1406.763 1418.519 1432.106 1446.374 1451.460 1466.759 1468.611 1463.883 1457.451 1455.071 1449.905 1448.088 1442.153 1439.592 1451.030 1452.194 1458.324 1464.386 1465.908 1459.413 1450.094 1442.024 1434.727 1418.944 1404.169 1395.941 1394.485 1396.461 1389.523 1379.461 1374.665 1360.754 1354.570 1347.754 1337.799 1326.697 1321.323 1321.550 1318.420 1315.029 1308.700 1299.595 1288.132 1277.230 1267.485 1257.789 1244.789 1236.641 1234.606 1232.504 -9999.000 -9999.000 -9999.000 -9999.000 -9999.000 -9999.000 -9999.000 -9999.000
1183.910 1191.896 1197.913 1207.134 1213.520 1212.547 1221.559 1228.990 1237.689 1228.111 1239.868 1234.274 1255.777 1270.574 1282.287 1287.286 1293.035 1300.018 1308.362 1308.043 1328.494 1330.236 1341.337 1334.954 1336.143 1347.799 1369.796 1384.750 1395.297 1395.963 1412.159 1432.881 1455.103 1476.546 1493.622 1484.500 1481.587 1477.771 1473.646 1469.320 1466.777 1463.767 1460.201 1449.544 1470.579 1470.920 1485.413 1490.334 1485.726 1475.206 1465.354 1451.860 1431.939 1415.477 1408.039 1403.220 1403.836 1402.718 1397.802 1388.972 1378.078 1366.249 1365.190 1357.723 1346.320 1336.842 1331.115 1328.078 1323.718 1318.831 1312.323 1302.623 1292.424 1280.586 1270.917 1260.655 1251.976 1248.073 1247.495 -9999.000 -9999.000 -9999.000 -9999.000 -9999.000 -9999.000 -9999.000 -9999.000 -9999.000
1198.538 1209.036 1209.900 1220.148 1227.299 1231.125 1241.410 1242.511 1251.123 1257.394 1261.308 1252.582 1276.844 1290.983 1304.108 1304.194 1310.796 1316.534 1325.007 1334.818 1345.685 1358.212 1367.226 1368.652 1372.371 1363.682 1374.302 1393.145 1410.897 1421.934 1419.961 1441.574 1464.816 1490.871 1507.136 1499.120 1496.533 1490.378 1488.413 1483.444 1485.753 1485.410 1478.050 1464.126 1490.534 1492.956 1505.901 1505.266 1496.948 1486.342 1471.981 1447.429 1428.164 1418.943 1414.718 1412.873 1417.961 1413.505 1406.099 1396.325 1384.153 1378.214 1373.034 1367.471 1356.636 1348.182 1341.969 1337.187 1328.122 1322.896 1315.945 1305.500 1295.941 1284.885 1276.106 1269.742 1265.405 1263.559 -9999.000 -9999.000 -9999.000 -9999.000 -9999.000 -9999.000 -9999.000 -9999.000 -9999.000 -9999.000
1215.313 1224.962 1230.210 1233.993 1244.344 1249.505 1255.797 1256.446 1262.372 1272.603 1277.241 1282.609 1283.718 1300.819 1314.321 1320.363 1323.375 1331.779 1340.109 1347.240 1363.331 1372.873 1380.611 1387.863 1384.557 1380.541 1389.724 1407.458 1431.353 1438.907 1455.921 1460.105 1477.498 1509.044 1515.858 1519.072 1512.431 1506.854 1503.697 1501.673 1503.367 1505.624 1486.394 1496.781 1508.543 1517.584 1520.283 1517.243 1509.874 1491.985 1470.045 1444.266 1436.563 1429.164 1425.619 1421.717 1417.691 1414.903 1414.656 1412.082 1398.606 1384.900 1378.225 1372.438 1367.221 1359.205 1353.598 1347.056 1340.798 1332.526 1324.826 1314.554 1307.514 1296.584 1288.953 1283.689 1283.438 1277.205 -9999.000 -9999.000 -9999.000 -9999.000 -9999.000 -9999.000 -9999.000 -9999.000 -9999.000 -9999.000
1231.189 1235.291 1242.788 1251.286 1258.646 1264.222 1266.906 1268.517 1277.895 1285.273 1292.599 1300.630 1286.431 1295.284 1308.475 1310.091 1333.786 1344.393 1354.613 1366.393 1377.656 1386.700 1397.040 1402.508 1402.250 1403.630 1419.761 1434.674 1448.550 1475.757 1486.592 1487.644 1496.122 1513.140 1526.822 1533.232 1531.404 1528.836 1524.191 1518.408 1523.146 1520.595 1521.800 1514.532 1525.598 1532.985 1531.311 1524.530 1508.037 1492.651 1460.569 1457.401 1448.626 1440.082 1434.040 1427.103 1424.754 1422.100 1414.814 1422.648 1404.808 1389.385 1384.318 1380.195 1373.428 1368.233 1365.551 1360.772 1354.562 1345.333 1336.324 1330.905 1321.625 1312.032 1304.928 1301.548 1296.327 -9999.000 -9999.000 -9999.000 -9999.000 -9999.000 -9999.000 -9999.000 -9999.000 -9999.000 -9999.000 -9999.000
1245.575 1252.202 1256.545 1265.089 1271.688 1276.282 1280.453 1287.594 1292.417 1298.204 1305.373 1314.880 1321.442 1326.904 1336.006 1330.867 1348.433 1354.744 1367.020 1379.094 1393.233 1401.999 1415.704 1421.782 1421.220 1426.542 1425.173 1439.281 1457.338 1490.639 1505.132 1505.290 1500.738 1522.719 1537.127 1547.511 1554.908 1548.704 1543.729 1541.948 1538.443 1535.927 1533.935 1532.984 1542.415 1544.063 1541.509 1524.769 1499.915 1480.956 1487.193 1494.737 1456.234 1451.622 1438.477 1431.721 1428.202 1424.814 1420.806 1413.977 1404.313 1394.645 1394.417 1391.510 1385.275 1383.070 1379.236 1374.875 1386.772 1376.051 1360.768 1346.867 1341.223 1331.653 1322.294 1314.837 -9999.000 -9999.000 -9999.000 -9999.000 -9999.000 -9999.000 -9999.000 -9999.000 -9999.000 -9999.000 -9999.000 -9999.000
-9999.000 1264.652 1270.470 1275.469 1287.037 1292.268 1293.138 1304.613 1311.997 1319.171 1323.625 1329.075 1337.297 1342.095 1349.368 1354.772 1356.801 1370.289 1381.899 1392.393 1407.737 1428.697 1436.729 1440.082 1442.839 1448.082 1457.336 1453.675 1463.469 1486.792 1509.520 1520.034 1519.977 1527.700 1543.697 1562.423 1570.565 1565.674 1560.845 1557.007 1553.035 1553.127 1544.264 1543.542 1555.252 1553.507 1547.977 1525.196 1507.190 1510.113 1528.152 1527.164 1519.841 1474.829 1471.282 1444.487 1435.943 1432.192 1423.928 1414.236 1410.715 1408.573 1407.062 1402.925 1398.898 1397.114 1394.337 1414.824 1419.435 1400.770 1378.927 1367.781 1359.481 1347.416 1337.343 1328.056 -9999.000 -9999.000 -9999.000 -9999.000 -9999.000 -9999.000 -9999.000 -9999.000 -9999.000 -9999.000 -9999.000 -9999.000
-9999.000 1274.768 1287.379 1293.340 1301.322 1307.318 1307.375 1321.900 1327.874 1333.540 1342.926 1347.203 1352.434 1356.331 1364.042 1371.111 1374.049 1377.676 1398.695 1412.690 1424.153 1443.989 1459.518 1459.806 1465.462 1476.697 1483.295 1475.237 1472.144 1492.432 1511.754 1529.825 1536.369 1547.081 1567.210 1576.078 1580.719 1577.630 1574.197 1571.408 1568.316 1566.663 1563.020 1555.234 1566.555 1563.246 1556.537 1539.510 1515.811 1533.691 1542.276 1542.135 1538.219 1534.538 1528.545 1443.286 1440.310 1439.912 1463.698 1452.758 1427.584 1433.906 1422.619 1416.968 1416.845 1412.678 1413.661 1461.057 1446.034 1430.505 1412.747 1396.586 1379.076 1364.547 1352.902 -9999.000 -9999.000 -9999.000 -9999.000 -9999.000 -9999.000 -9999.000 -9999.000 -9999.000 -9999.000 -9999.000 -9999.000 -9999.000
-9999.000 -9999.000 1302.040 1309.202 1313.399 1322.915 1328.225 1328.984 1344.510 1353.858 1358.264 1367.154 1371.773 1375.514 1382.226 1391.313 1379.566 1383.080 1402.785 1416.911 1432.812 1452.157 1471.740 1479.378 1489.742 1496.586 1495.334 1488.659 1503.111 1514.973 1525.232 1544.116 1553.120 1568.477 1578.830 1588.851 1591.882 1594.292 1592.987 1588.034 1584.420 1578.494 1580.441 1571.391 1579.925 1575.366 1566.406 1540.706 1529.937 1546.148 1558.930 1558.747 1555.710 1553.089 1550.476 1551.808 1547.675 1538.442 1538.542 1522.255 1496.562 1470.398 1452.354 1436.669 1431.929 1430.628 1448.005 1478.576 1460.070 1445.337 1429.779 1414.658 1396.614 1384.170 -9999.000 -9999.000 -9999.000 -9999.000 -9999.000 -9999.000 -9999.000 -9999.000 -9999.000 -9999.000 -9999.000 -9999.000 -9999.000 -9999.000
-9999.000 -9999.000 1315.247 1325.863 1332.499 1343.484 1352.148 1362.854 1354.604 1374.702 1380.990 1385.661 1390.129 1394.053 1400.022 1405.750 1381.850 1395.840 1411.089 1429.747 1448.561 1468.792 1480.863 1493.275 1504.110 1511.740 1513.006 1513.838 1533.291 1537.727 1548.037 1562.711 1580.427 1586.357 1596.618 1601.872 1608.020 1616.614 1609.840 1605.842 1600.727 1594.860 1591.932 1590.884 1593.873 1586.365 1570.134 1550.977 1543.570 1556.290 1570.384 1580.075 1574.807 1574.316 1575.022 1576.715 1569.166 1572.252 1568.874 1552.632 1526.171 1500.824 1484.728 1465.716 1451.148 1467.485 1494.414 1484.366 1467.189 1450.252 1435.042 1421.244 1407.646 1392.926 -9999.000 -9999.000 -9999.000 -9999.000 -9999.000 -9999.000 -9999.000 -9999.000 -9999.000 -9999.000 -9999.000 -9999.000 -9999.000 -9999.000
-9999.000 -9999.000 1331.082 1339.566 1351.956 1355.145 1370.296 1380.265 1385.646 1384.537 1395.887 1400.197 1405.828 1413.206 1413.342 1421.875 1403.799 1410.061 1434.051 1448.282 1462.109 1477.517 1496.574 1514.237 1521.932 1540.816 1544.716 1541.340 1559.222 1572.119 1570.212 1579.015 1599.182 1601.091 1609.812 1625.825 1635.571 1632.397 1630.079 1624.242 1617.561 1610.027 1606.322 1604.410 1605.509 1594.877 1579.139 1563.898 1561.956 1570.039 1600.751 1599.896 1599.883 1600.569 1605.508 1598.889 1593.673 1588.834 1585.083 1575.506 1553.436 1526.633 1515.204 1489.763 1476.502 1497.567 1501.969 1486.681 1471.587 1454.617 1438.771 1424.697 1411.604 -9999.000 -9999.000 -9999.000 -9999.000 -9999.000 -9999.000 -9999.000 -9999.000 -9999.000 -9999.000 -9999.000 -9999.000 -9999.000 -9999.000 -9999.000
-9999.000 -9999.000 -9999.000 1358.206 1371.510 1380.833 1388.411 1395.769 1403.485 1407.529 1411.881 1416.984 1421.143 1427.991 1432.335 1436.485 1437.332 1434.793 1453.422 1471.152 1491.813 1500.794 1525.201 1537.607 1542.829 1557.916 1564.175 1579.862 1589.896 1595.401 1594.009 1594.987 1605.667 1616.172 1623.557 1639.922 1651.423 1652.043 1649.701 1643.337 1633.583 1628.541 1619.467 1617.661 1614.192 1607.127 1596.169 1577.408 1577.941 1609.448 1615.821 1620.757 1622.136 1625.490 1622.840 1616.092 1612.216 1605.170 1599.703 1594.188 1576.996 1559.751 1538.839 1515.702 1504.175 1514.167 1502.319 1486.472 1470.895 1455.794 1439.134 1424.041 -9999.000 -9999.000 -9999.000 -9999.000 -9999.000 -9999.000 -9999.000 -9999.000 -9999.000 -9999.000 -9999.000 -9999.000 -9999.000 -9999.000 -9999.000 -9999.000
-9999.000 -9999.000 -9999.000 1352.841 1386.697 1400.855 1403.419 1415.920 1419.662 1423.951 1421.732 1437.031 1439.750 1445.417 1451.190 1457.392 1455.495 1446.892 1465.824 1476.146 1503.676 1527.773 1530.665 1548.345 1565.986 1575.823 1591.137 1590.502 1605.941 1607.180 1609.498 1617.422 1623.239 1630.376 1639.562 1654.734 1671.065 1670.227 1664.779 1655.573 1646.459 1641.464 1637.430 1634.130 1627.406 1628.397 1617.498 1592.701 1587.241 1623.056 1630.682 1639.576 1650.867 1644.996 1636.342 1628.837 1624.492 1621.175 1615.662 1599.092 1578.609 1561.659 1544.282 1539.636 1540.710 1522.858 1506.537 1490.722 1475.886 1460.488 1443.263 1437.273 -9999.000 -9999.000 -9999.000 -9999.000 -9999.000 -9999.000 -9999.000 -9999.000 -9999.000 -9999.000 -9999.000 -9999.000 -9999.000 -9999.000 -9999.000 -9999.000
-9999.000 -9999.000 -9999.000 -9999.000 1411.757 1423.172 1427.575 1435.088 1436.810 1440.241 1452.928 1446.210 1461.423 1471.998 1472.354 1476.611 1461.891 1455.913 1475.026 1495.495 1513.535 1537.090 1554.452 1560.392 1573.782 1605.619 1606.594 1619.100 1626.215 1622.882 1628.636 1638.335 1643.192 1647.756 1659.924 1675.754 1683.931 1680.385 1672.315 1665.300 1661.787 1657.811 1655.629 1651.193 1642.675 1640.829 1626.397 1610.602 1603.357 1634.916 1645.941 1658.848 1666.351 1661.473 1649.466 1641.272 1638.975 1639.794 1633.118 1618.415 1607.349 1590.996 1575.785 1562.013 1549.383 1533.830 1517.967 1499.567 1483.939 1468.481 1454.739 -9999.000 -9999.000 -9999.000 -9999.000 -9999.000 -9999.000 -9999.000 -9999.000 -9999.000 -9999.000 -9999.000 -9999.000 -9999.000 -9999.000 -9999.000 -9999.000 -9999.000
-9999.000 -9999.000 -9999.000 -9999.000 1428.552 1444.341 1449.398 1453.471 1455.755 1457.830 1471.651 1469.000 1478.944 1494.402 1489.511 1495.374 1479.261 1460.379 1482.495 1501.564 1526.390 1539.021 1559.602 1574.561 1588.266 1621.230 1630.404 1637.034 1639.513 1638.363 1651.514 1656.769 1659.545 1662.603 1678.728 1699.363 1699.743 1691.002 1686.744 1679.531 1679.711 1675.115 1669.620 1666.030 1660.402 1651.934 1640.245 1616.201 1635.841 1650.044 1660.629 1675.643 1683.132 1673.995 1662.329 1654.332 1653.642 1652.769 1644.155 1631.792 1616.517 1597.123 1580.687 1564.901 1549.257 1534.112 1520.727 1504.561 1486.904 1470.262 -9999.000 -9999.000 -9999.000 -9999.000 -9999.000 -9999.000 -9999.000 -9999.000 -9999.000 -9999.000 -9999.000 -9999.000 -9999.000 -9999.000 -9999.000 -9999.000 -9999.000 -9999.000
-9999.000 -9999.000 -9999.000 -9999.000 1434.392 1457.610 1464.957 1468.460 1479.230 1479.550 1493.112 1502.557 1509.492 1515.303 1512.372 1515.766 1506.053 1474.204 1486.608 1528.611 1537.293 1551.915 1562.891 1580.620 1605.397 1621.203 1633.553 1644.969 1654.135 1654.042 1661.341 1673.502 1676.952 1691.255 1701.956 1714.710 1713.837 1707.101 1702.017 1697.303 1695.294 1690.151 1688.512 1683.105 1672.934 1662.136 1636.500 1645.247 1655.645 1664.894 1675.657 1691.797 1695.187 1685.488 1673.239 1667.231 1665.508 1660.576 1648.964 1634.552 1618.735 1600.812 1583.610 1566.732 1551.532 1536.230 1522.157 1507.138 1490.645 1468.794 -9999.000 -9999.000 -9999.000 -9999.000 -9999.000 -9999.000 -9999.000 -9999.000 -9999.000 -9999.000 -9999.000 -9999.000 -9999.000 -9999.000 -9999.000 -9999.000 -9999.000 -9999.000
-9999.000 -9999.000 -9999.000 -9999.000 -9999.000 1462.604 1482.635 1490.676 1502.074 1510.211 1519.500 1525.661 1530.762 1532.989 1536.261 1531.537 1513.809 1488.588 1499.530 1516.267 1538.221 1553.443 1574.992 1595.531 1607.282 1621.174 1637.072 1653.148 1665.364 1670.456 1676.457 1687.397 1696.994 1718.648 1726.932 1737.014 1731.363 1719.510 1715.005 1712.539 1709.516 1707.052 1703.052 1695.383 1684.453 1656.605 1651.814 1668.447 1672.060 1681.860 1693.459 1709.179 1706.518 1695.254 1684.845 1679.345 1673.812 1664.573 1651.606 1636.122 1619.656 1603.966 1587.296 1569.802 1554.671 1539.701 1523.420 1507.997 1495.821 -9999.000 -9999.000 -9999.000 -9999.000 -9999.000 -9999.000 -9999.000 -9999.000 -9999.000 -9999.000 -9999.000 -9999.000 -9999.000 -9999.000 -9999.000 -9999.000 -9999.000 -9999.000 -9999.000
-9999.000 -9999.000 -9999.000 -9999.000 -9999.000 1497.151 1512.972 1513.929 1528.569 1541.177 1540.530 1550.934 1548.907 1560.358 1561.614 1560.393 1536.859 1515.561 1501.006 1525.701 1548.317 1569.844 1592.198 1617.366 1621.234 1631.229 1646.276 1663.567 1678.153 1685.774 1689.553 1699.865 1723.229 1737.487 1746.422 1750.451 1739.791 1730.682 1729.269 1727.682 1725.345 1720.809 1716.554 1705.494 1686.637 1666.877 1678.942 1683.762 1689.386 1699.728 1714.168 1729.072 1720.807 1705.992 1696.511 1689.128 1678.610 1665.577 1650.617 1635.300 1619.030 1603.178 1588.042 1572.176 1558.342 1541.887 1524.529 1508.778 -9999.000 -9999.000 -9999.000 -9999.000 -9999.000 -9999.000 -9999.000 -9999.000 -9999.000 -9999.000 -9999.000 -9999.000 -9999.000 -9999.000 -9999.000 -9999.000 -9999.000 -9999.000 -9999.000 -9999.000
-9999.000 -9999.000 -9999.000 -9999.000 -9999.000 -9999.000 1502.835 1519.799 1543.817 1558.103 1564.514 1567.068 1570.279 1578.059 1587.291 1591.384 1581.292 1545.385 1507.661 1537.186 1548.406 1571.881 1606.842 1624.785 1638.492 1651.040 1659.976 1676.508 1700.145 1713.522 1717.826 1719.418 1725.676 1745.482 1759.523 1762.098 1753.675 1744.989 1739.945 1739.602 1733.827 1730.451 1725.345 1712.035 1684.700 1694.417 1700.208 1700.351 1708.945 1719.546 1748.999 1740.897 1729.035 1715.847 1705.953 1695.458 1681.036 1665.791 1651.341 1636.977 1621.759 1605.877 1591.208 1573.569 1558.859 1542.872 1530.277 1514.845 -9999.000 -9999.000 -9999.000 -9999.000 -9999.000 -9999.000 -9999.000 -9999.000 -9999.000 -9999.000 -9999.000 -9999.000 -9999.000 -9999.000 -9999.000 -9999.000 -9999.000 -9999.000 -9999.000 -9999.000
-9999.000 -9999.000 -9999.000 -9999.000 -9999.000 -9999.000 1498.507 1506.557 1557.518 1570.994 1583.226 1583.970 1593.917 1611.713 1617.877 1609.284 1609.775 1580.695 1522.123 1538.641 1556.845 1579.722 1601.935 1625.406 1645.288 1667.599 1680.177 1703.535 1718.057 1729.617 1742.341 1747.281 1748.124 1757.981 1768.205 1775.652 1770.745 1759.943 1751.394 1749.676 1745.890 1743.130 1733.737 1707.306 1706.875 1713.388 1717.552 1720.072 1728.967 1762.429 1761.709 1748.892 1735.067 1724.569 1711.385 1698.964 1683.858 1667.725 1654.672 1640.845 1625.377 1609.089 1594.193 1580.666 1567.318 1553.718 1539.073 -9999.000 -9999.000 -9999.000 -9999.000 -9999.000 -9999.000 -9999.000 -9999.000 -9999.000 -9999.000 -9999.000 -9999.000 -9999.000 -9999.000 -9999.000 -9999.000 -9999.000 -9999.000 -9999.000 -9999.000 -9999.000
-9999.000 -9999.000 -9999.000 -9999.000 -9999.000 -9999.000 -9999.000 1516.695 1540.164 1569.559 1595.489 1615.364 1625.068 1635.037 1640.239 1632.782 1620.545 1607.042 1544.251 1543.473 1580.184 1589.971 1604.116 1621.577 1657.235 1671.789 1697.093 1707.365 1719.023 1734.080 1749.871 1759.968 1766.434 1774.593 1784.556 1789.514 1781.880 1770.163 1763.530 1759.290 1755.536 1750.872 1736.107 1720.116 1727.897 1731.368 1736.453 1743.365 1770.648 1780.690 1771.644 1759.846 1745.156 1736.353 1724.449 1709.347 1695.609 1674.263 1658.876 1643.608 1629.818 1615.666 1601.728 1589.547 1575.121 1557.205 -9999.000 -9999.000 -9999.000 -9999.000 -9999.000 -9999.000 -9999.000 -9999.000 -9999.000 -9999.000 -9999.000 -9999.000 -9999.000 -9999.000 -9999.000 -9999.000 -9999.000 -9999.000 -9999.000 -9999.000 -9999.000 -9999.000
-9999.000 -9999.000 -9999.000 -9999.000 -9999.000 -9999.000 -9999.000 1533.066 1538.685 1562.575 1587.657 1619.681 1637.804 1647.895 1650.602 1650.534 1644.924 1639.668 1602.312 1560.625 1582.210 1600.690 1613.235 1643.085 1656.155 1665.459 1689.933 1707.294 1723.047 1740.015 1758.621 1770.706 1779.910 1787.774 1797.721 1799.636 1792.688 1779.527 1775.820 1772.462 1767.215 1759.702 1744.511 1736.753 1744.819 1748.915 1757.050 1773.085 1795.603 1788.147 1778.862 1767.821 1756.500 1752.321 1736.297 1721.621 1706.816 1682.609 1665.981 1652.390 1635.498 1625.444 1612.938 1595.765 1577.055 1559.435 -9999.000 -9999.000 -9999.000 -9999.000 -9999.000 -9999.000 -9999.000 -9999.000 -9999.000 -9999.000 -9999.000 -9999.000 -9999.000 -9999.000 -9999.000 -9999.000 -9999.000 -9999.000 -9999.000 -9999.000 -9999.000 -9999.000
-9999.000 -9999.000 -9999.000 -9999.000 -9999.000 -9999.000 -9999.000 1569.133 1544.714 1554.672 1584.452 1611.760 1644.813 1648.688 1659.410 1663.237 1656.274 1634.933 1625.566 1573.559 1600.728 1615.255 1631.673 1640.486 1653.964 1669.238 1686.237 1706.738 1735.217 1755.035 1770.897 1781.211 1793.346 1803.747 1807.583 1801.016 1796.724 1791.018 1788.890 1784.113 1777.780 1766.263 1759.502 1752.703 1760.028 1768.472 1785.400 1807.190 1803.370 1800.984 1792.152 1782.521 1778.782 1763.811 1746.401 1732.735 1717.224 1697.123 1679.294 1660.862 1645.120 1630.167 1616.605 1596.453 1576.842 -9999.000 -9999.000 -9999.000 -9999.000 -9999.000 -9999.000 -9999.000 -9999.000 -9999.000 -9999.000 -9999.000 -9999.000 -9999.000 -9999.000 -9999.000 -9999.000 -9999.000 -9999.000 -9999.000 -9999.000 -9999.000 -9999.000 -9999.000
-9999.000 -9999.000 -9999.000 -9999.000 -9999.000 -9999.000 -9999.000 -9999.000 1582.915 1559.899 1576.708 1606.913 1617.680 1634.515 1659.217 1678.412 1673.471 1652.591 1629.332 1595.604 1610.596 1633.090 1647.150 1653.265 1658.323 1671.687 1686.911 1711.570 1751.650 1777.066 1784.796 1792.715 1806.633 1814.116 1816.594 1809.209 1805.635 1802.607 1800.698 1796.132 1788.348 1782.088 1776.915 1773.111 1786.037 1794.370 1806.872 1818.708 1820.275 1817.622 1809.550 1801.574 1792.656 1776.505 1759.684 1746.906 1732.703 1715.158 1693.590 1672.647 1649.892 1630.565 1614.138 1594.968 -9999.000 -9999.000 -9999.000 -9999.000 -9999.000 -9999.000 -9999.000 -9999.000 -9999.000 -9999.000 -9999.000 -9999.000 -9999.000 -9999.000 -9999.000 -9999.000 -9999.000 -9999.000 -9999.000 -9999.000 -9999.000 -9999.000 -9999.000 -9999.000
-9999.000 -9999.000 -9999.000 -9999.000 -9999.000 -9999.000 -9999.000 -9999.000 1601.059 1574.706 1583.307 1600.229 1616.452 1644.487 1690.902 1691.172 1686.798 1672.810 1644.632 1629.315 1612.090 1632.264 1651.135 1669.009 1675.668 1692.543 1714.252 1746.233 1764.520 1783.052 1792.939 1804.280 1818.057 1827.397 1829.397 1826.707 1817.145 1812.819 1812.037 1807.331 1801.883 1797.586 1793.290 1801.609 1814.240 1817.307 1821.279 1833.541 1847.293 1840.755 1831.188 1814.704 1798.483 1784.134 1768.925 1746.879 1725.982 1706.728 1688.786 1667.610 1647.423 1624.589 1600.967 1582.776 -9999.000 -9999.000 -9999.000 -9999.000 -9999.000 -9999.000 -9999.000 -9999.000 -9999.000 -9999.000 -9999.000 -9999.000 -9999.000 -9999.000 -9999.000 -9999.000 -9999.000 -9999.000 -9999.000 -9999.000 -9999.000 -9999.000 -9999.000 -9999.000
-9999.000 -9999.000 -9999.000 -9999.000 -9999.000 -9999.000 -9999.000 -9999.000 -9999.000 1601.316 1593.793 1611.100 1630.153 1671.661 1702.035 1707.371 1703.185 1701.910 1676.478 1640.927 1625.553 1643.321 1660.891 1687.729 1719.533 1744.333 1752.715 1760.589 1767.740 1787.132 1801.109 1814.725 1832.776 1842.085 1840.695 1834.851 1829.029 1824.447 1824.676 1821.026 1818.108 1817.468 1817.112 1818.224 1837.167 1839.168 1843.299 1853.187 1868.851 1858.603 1838.380 1817.642 1798.924 1781.332 1764.599 1744.793 1723.259 1703.141 1682.711 1658.838 1639.601 1630.048 1613.235 -9999.000 -9999.000 -9999.000 -9999.000 -9999.000 -9999.000 -9999.000 -9999.000 -9999.000 -9999.000 -9999.000 -9999.000 -9999.000 -9999.000 -9999.000 -9999.000 -9999.000 -9999.000 -9999.000 -9999.000 -9999.000 -9999.000 -9999.000 -9999.000 -9999.000
-9999.000 -9999.000 -9999.000 -9999.000 -9999.000 -9999.000 -9999.000 -9999.000 -9999.000 1609.320 1592.453 1626.304 1650.042 1684.188 1712.041 1719.776 1723.836 1719.358 1693.767 1653.938 1634.537 1654.708 1683.676 1709.796 1732.145 1753.732 1765.624 1777.746 1782.073 1788.223 1811.094 1826.755 1841.758 1845.488 1844.586 1844.669 1841.641 1842.292 1840.180 1841.727 1842.521 1839.202 1839.289 1837.472 1846.104 1859.794 1871.403 1880.135 1884.566 1858.747 1838.208 1816.541 1797.100 1776.868 1759.259 1741.410 1720.193 1697.101 1675.811 1668.447 1650.605 1632.042 -9999.000 -9999.000 -9999.000 -9999.000 -9999.000 -9999.000 -9999.000 -9999.000 -9999.000 -9999.000 -9999.000 -9999.000 -9999.000 -9999.000 -9999.000 -9999.000 -9999.000 -9999.000 -9999.000 -9999.000 -9999.000 -9999.000 -9999.000 -9999.000 -9999.000 -9999.000
-9999.000 -9999.000 -9999.000 -9999.000 -9999.000 -9999.000 -9999.000 -9999.000 -9999.000 1629.233 1600.865 1637.289 1661.343 1693.910 1717.597 1726.898 1731.720 1728.127 1707.748 1692.147 1645.891 1665.415 1686.637 1714.073 1742.837 1764.839 1780.788 1797.018 1798.511 1809.338 1821.330 1835.167 1844.068 1852.573 1856.229 1856.796 1856.482 1859.656 1860.591 1863.952 1860.712 1857.125 1856.771 1854.439 1859.623 1874.164 1895.414 1902.788 1891.152 1867.512 1837.765 1817.794 1796.216 1772.593 1751.084 1732.179 1713.081 1698.846 1700.660 1671.743 1653.682 1639.957 -9999.000 -9999.000 -9999.000 -9999.000 -9999.000 -9999.000 -9999.000 -9999.000 -9999.000 -9999.000 -9999.000 -9999.000 -9999.000 -9999.000 -9999.000 -9999.000 -9999.000 -9999.000 -9999.000 -9999.000 -9999.000 -9999.000 -9999.000 -9999.000 -9999.000 -9999.000
-9999.000 -9999.000 -9999.000 -9999.000 -9999.000 -9999.000 -9999.000 -9999.000 -9999.000 -9999.000 1610.210 1656.046 1686.324 1704.037 1726.487 1739.327 1743.012 1737.482 1731.591 1714.720 1662.356 1671.085 1697.721 1729.797 1752.166 1768.962 1794.714 1819.725 1825.488 1823.682 1828.417 1843.684 1862.339 1870.704 1868.529 1869.252 1870.556 1872.788 1875.251 1878.361 1876.030 1874.753 1873.442 1871.525 1875.503 1891.344 1908.679 1917.608 1901.519 1883.285 1868.148 1822.907 1801.975 1780.660 1760.590 1739.003 1718.661 1729.507 1725.728 1708.373 1678.607 -9999.000 -9999.000 -9999.000 -9999.000 -9999.000 -9999.000 -9999.000 -9999.000 -9999.000 -9999.000 -9999.000 -9999.000 -9999.000 -9999.000 -9999.000 -9999.000 -9999.000 -9999.000 -9999.000 -9999.000 -9999.000 -9999.000 -9999.000 -9999.000 -9999.000 -9999.000 -9999.000
-9999.000 -9999.000 -9999.000 -9999.000 -9999.000 -9999.000 -9999.000 -9999.000 -9999.000 -9999.000 1635.771 1672.819 1694.085 1709.565 1743.361 1749.404 1751.150 1751.405 1746.107 1711.063 1689.521 1690.825 1713.809 1727.711 1747.097 1774.226 1806.221 1832.778 1838.061 1837.121 1842.661 1853.770 1870.765 1879.856 1880.431 1884.152 1885.562 1887.760 1890.914 1895.050 1897.319 1895.873 1894.295 1894.202 1891.058 1903.018 1919.499 1930.975 1914.381 1899.664 1888.935 1850.528 1835.176 1811.193 1770.008 1748.889 1749.307 1755.120 1745.169 1727.761 -9999.000 -9999.000 -9999.000 -9999.000 -9999.000 -9999.000 -9999.000 -9999.000 -9999.000 -9999.000 -9999.000 -9999.000 -9999.000 -9999.000 -9999.000 -9999.000 -9999.000 -9999.000 -9999.000 -9999.000 -9999.000 -9999.000 -9999.000 -9999.000 -9999.000 -9999.000 -9999.000 -9999.000
-9999.000 -9999.000 -9999.000 -9999.000 -9999.000 -9999.000 -9999.000 -9999.000 -9999.000 -9999.000 -9999.000 1681.083 1702.722 1731.563 1744.241 1753.163 1758.693 1761.481 1750.222 1739.759 1707.332 1710.722 1735.170 1741.139 1768.145 1791.098 1812.323 1831.840 1845.305 1850.589 1864.811 1873.207 1881.329 1888.085 1892.728 1897.494 1900.264 1903.592 1907.144 1912.377 1917.016 1918.681 1916.008 1910.651 1908.210 1917.587 1931.185 1947.358 1932.633 1914.831 1908.145 1889.721 1861.184 1825.771 1790.420 1764.967 1772.724 1769.812 -9999.000 -9999.000 -9999.000 -9999.000 -9999.000 -9999.000 -9999.000 -9999.000 -9999.000 -9999.000 -9999.000 -9999.000 -9999.000 -9999.000 -9999.000 -9999.000 -9999.000 -9999.000 -9999.000 -9999.000 -9999.000 -9999.000 -9999.000 -9999.000 -9999.000 -9999.000 -9999.000 -9999.000 -9999.000 -9999.000
-9999.000 -9999.000 -9999.000 -9999.000 -9999.000 -9999.000 -9999.000 -9999.000 -9999.000 -9999.000 -9999.000 1688.806 1708.521 1727.835 1751.561 1761.783 1770.253 1773.219 1760.263 1745.047 1729.130 1727.701 1758.741 1757.916 1781.622 1798.559 1825.311 1841.436 1853.116 1865.161 1875.782 1888.437 1894.916 1898.390 1903.685 1910.542 1915.857 1921.063 1926.698 1929.227 1934.024 1940.483 1936.591 1926.999 1925.563 1932.564 1957.900 1961.195 1946.710 1933.555 1917.750 1887.211 1846.631 1830.654 1795.462 1796.019 1800.139 -9999.000 -9999.000 -9999.000 -9999.000 -9999.000 -9999.000 -9999.000 -9999.000 -9999.000 -9999.000 -9999.000 -9999.000 -9999.000 -9999.000 -9999.000 -9999.000 -9999.000 -9999.000 -9999.000 -9999.000 -9999.000 -9999.000 -9999.000 -9999.000 -9999.000 -9999.000 -9999.000 -9999.000 -9999.000 -9999.000 -9999.000
-9999.000 -9999.000 -9999.000 -9999.000 -9999.000 -9999.000 -9999.000 -9999.000 -9999.000 -9999.000 -9999.000 1696.309 1713.829 1732.966 1746.940 1779.800 1795.706 1795.030 1781.767 1769.061 1749.470 1732.159 1769.104 1775.734 1793.028 1817.649 1833.232 1844.837 1860.278 1873.783 1884.757 1901.081 1906.388 1910.198 1915.311 1922.851 1931.255 1937.605 1944.461 1948.042 1956.325 1964.004 1959.322 1945.145 1944.972 1956.219 1974.814 1972.300 1959.321 1939.820 1915.359 1884.399 1853.016 1818.596 1822.472 1819.445 -9999.000 -9999.000 -9999.000 -9999.000 -9999.000 -9999.000 -9999.000 -9999.000 -9999.000 -9999.000 -9999.000 -9999.000 -9999.000 -9999.000 -9999.000 -9999.000 -9999.000 -9999.000 -9999.000 -9999.000 -9999.000 -9999.000 -9999.000 -9999.000 -9999.000 -9999.000 -9999.000 -9999.000 -9999.000 -9999.000 -9999.000 -9999.000
-9999.000 -9999.000 -9999.000 -9999.000 -9999.000 -9999.000 -9999.000 -9999.000 -9999.000 -9999.000 -9999.000 -9999.000 1725.451 1742.601 1765.292 1786.383 1813.774 1821.302 1814.135 1786.999 1771.326 1750.818 1776.329 1789.463 1802.183 1833.732 1851.039 1857.149 1869.638 1882.596 1899.832 1911.470 1916.619 1921.324 1927.414 1935.087 1944.029 1951.721 1957.979 1964.681 1973.582 1983.704 1979.298 1964.253 1963.288 1980.022 1989.451 1987.965 1972.412 1953.067 1923.766 1891.108 1853.675 1841.123 1840.766 -9999.000 -9999.000 -9999.000 -9999.000 -9999.000 -9999.000 -9999.000 -9999.000 -9999.000 -9999.000 -9999.000 -9999.000 -9999.000 -9999.000 -9999.000 -9999.000 -9999.000 -9999.000 -9999.000 -9999.000 -9999.000 -9999.000 -9999.000 -9999.000 -9999.000 -9999.000 -9999.000 -9999.000 -9999.000 -9999.000 -9999.000 -9999.000 -9999.000
-9999.000 -9999.000 -9999.000 -9999.000 -9999.000 -9999.000 -9999.000 -9999.000 -9999.000 -9999.000 -9999.000 -9999.000 1715.252 1734.554 1753.403 1786.711 1814.368 1832.803 1831.105 1810.415 1798.568 1772.079 1773.882 1801.971 1823.561 1853.260 1867.291 1871.990 1881.637 1895.701 1910.023 1920.445 1927.855 1932.988 1939.915 1947.420 1957.587 1965.852 1972.765 1985.342 1995.891 1997.659 1997.658 1995.109 1983.902 1990.717 1999.672 1998.406 1978.422 1953.281 1925.582 1893.953 1860.058 1863.048 -9999.000 -9999.000 -9999.000 -9999.000 -9999.000 -9999.000 -9999.000 -9999.000 -9999.000 -9999.000 -9999.000 -9999.000 -9999.000 -9999.000 -9999.000 -9999.000 -9999.000 -9999.000 -9999.000 -9999.000 -9999.000 -9999.000 -9999.000 -9999.000 -9999.000 -9999.000 -9999.000 -9999.000 -9999.000 -9999.000 -9999.000 -9999.000 -9999.000 -9999.000
-9999.000 -9999.000 -9999.000 -9999.000 -9999.000 -9999.000 -9999.000 -9999.000 -9999.000 -9999.000 -9999.000 -9999.000 -9999.000 1748.810 1755.254 1794.924 1827.244 1845.331 1844.406 1829.692 1819.059 1801.068 1796.006 1813.663 1833.183 1856.988 1874.254 1884.950 1895.112 1905.730 1920.115 1932.117 1940.302 1946.460 1953.040 1960.407 1969.568 1978.504 1987.212 1999.361 2008.492 2011.967 2015.419 2015.884 2004.867 2002.389 2007.506 2004.548 1981.434 1954.926 1920.471 1888.894 1888.272 -9999.000 -9999.000 -9999.000 -9999.000 -9999.000 -9999.000 -9999.000 -9999.000 -9999.000 -9999.000 -9999.000 -9999.000 -9999.000 -9999.000 -9999.000 -9999.000 -9999.000 -9999.000 -9999.000 -9999.000 -9999.000 -9999.000 -9999.000 -9999.000 -9999.000 -9999.000 -9999.000 -9999.000 -9999.000 -9999.000 -9999.000 -9999.000 -9999.000 -9999.000 -9999.000
-9999.000 -9999.000 -9999.000 -9999.000 -9999.000 -9999.000 -9999.000 -9999.000 -9999.000 -9999.000 -9999.000 -9999.000 -9999.000 1762.656 1784.824 1802.154 1835.181 1858.303 1863.272 1853.592 1840.928 1822.992 1816.516 1812.900 1833.257 1859.777 1872.706 1883.906 1905.750 1918.985 1930.760 1942.243 1951.329 1959.440 1966.244 1973.491 1981.894 1991.015 2000.432 2010.616 2020.145 2025.215 2030.302 2033.880 2017.979 2015.501 2016.333 2004.027 1976.300 1948.528 1923.809 -9999.000 -9999.000 -9999.000 -9999.000 -9999.000 -9999.000 -9999.000 -9999.000 -9999.000 -9999.000 -9999.000 -9999.000 -9999.000 -9999.000 -9999.000 -9999.000 -9999.000 -9999.000 -9999.000 -9999.000 -9999.000 -9999.000 -9999.000 -9999.000 -9999.000 -9999.000 -9999.000 -9999.000 -9999.000 -9999.000 -9999.000 -9999.000 -9999.000 -9999.000 -9999.000 -9999.000 -9999.000
-9999.000 -9999.000 -9999.000 -9999.000 -9999.000 -9999.000 -9999.000 -9999.000 -9999.000 -9999.000 -9999.000 -9999.000 -9999.000 1779.819 1803.273 1824.161 1852.919 1870.681 1886.621 1871.564 1862.093 1844.720 1831.213 1826.814 1839.845 1847.417 1863.816 1882.901 1910.166 1929.047 1942.020 1953.323 1962.304 1969.851 1977.986 1985.755 1994.985 2005.941 2016.195 2028.092 2033.996 2040.544 2046.390 2048.124 2033.262 2030.347 2024.261 2001.628 1975.537 1959.374 -9999.000 -9999.000 -9999.000 -9999.000 -9999.000 -9999.000 -9999.000 -9999.000 -9999.000 -9999.000 -9999.000 -9999.000 -9999.000 -9999.000 -9999.000 -9999.000 -9999.000 -9999.000 -9999.000 -9999.000 -9999.000 -9999.000 -9999.000 -9999.000 -9999.000 -9999.000 -9999.000 -9999.000 -9999.000 -9999.000 -9999.000 -9999.000 -9999.000 -9999.000 -9999.000 -9999.000 -9999.000 -9999.000
-9999.000 -9999.000 -9999.000 -9999.000 -9999.000 -9999.000 -9999.000 -9999.000 -9999.000 -9999.000 -9999.000 -9999.000 -9999.000 -9999.000 1821.474 1846.566 1878.648 1914.146 1922.782 1910.807 1891.150 1870.980 1851.774 1846.330 1852.964 1870.519 1873.620 1888.827 1915.626 1935.443 1950.589 1963.103 1973.201 1981.396 1989.434 1998.079 2010.044 2022.285 2033.721 2043.490 2049.436 2055.645 2063.463 2060.266 2048.619 2041.402 2027.032 2008.770 1992.378 -9999.000 -9999.000 -9999.000 -9999.000 -9999.000 -9999.000 -9999.000 -9999.000 -9999.000 -9999.000 -9999.000 -9999.000 -9999.000 -9999.000 -9999.000 -9999.000 -9999.000 -9999.000 -9999.000 -9999.000 -9999.000 -9999.000 -9999.000 -9999.000 -9999.000 -9999.000 -9999.000 -9999.000 -9999.000 -9999.000 -9999.000 -9999.000 -9999.000 -9999.000 -9999.000 -9999.000 -9999.000 -9999.000 -9999.000
-9999.000 -9999.000 -9999.000 -9999.000 -9999.000 -9999.000 -9999.000 -9999.000 -9999.000 -9999.000 -9999.000 -9999.000 -9999.000 -9999.000 1835.007 1889.421 1911.326 1925.214 1932.361 1924.116 1910.590 1895.840 1883.958 1862.857 1866.448 1875.183 1889.931 1899.076 1920.470 1940.214 1959.007 1972.679 1986.394 1996.021 2003.047 2012.142 2025.387 2037.488 2047.240 2056.441 2064.014 2072.799 2079.452 2071.303 2060.146 2052.174 2042.726 2023.207 -9999.000 -9999.000 -9999.000 -9999.000 -9999.000 -9999.000 -9999.000 -9999.000 -9999.000 -9999.000 -9999.000 -9999.000 -9999.000 -9999.000 -9999.000 -9999.000 -9999.000 -9999.000 -9999.000 -9999.000 -9999.000 -9999.000 -9999.000 -9999.000 -9999.000 -9999.000 -9999.000 -9999.000 -9999.000 -9999.000 -9999.000 -9999.000 -9999.000 -9999.000 -9999.000 -9999.000 -9999.000 -9999.000 -9999.000 -9999.000
-9999.000 -9999.000 -9999.000 -9999.000 -9999.000 -9999.000 -9999.000 -9999.000 -9999.000 -9999.000 -9999.000 -9999.000 -9999.000 -9999.000 -9999.000 1908.276 1922.360 1943.450 1942.834 1934.928 1925.274 1904.338 1890.008 1880.226 1875.050 1887.024 1898.168 1910.656 1926.032 1945.667 1964.272 1982.435 1997.532 2010.251 2018.279 2030.286 2041.204 2051.157 2060.859 2068.841 2077.033 2087.082 2091.659 2082.273 2071.114 2062.796 2047.538 -9999.000 -9999.000 -9999.000 -9999.000 -9999.000 -9999.000 -9999.000 -9999.000 -9999.000 -9999.000 -9999.000 -9999.000 -9999.000 -9999.000 -9999.000 -9999.000 -9999.000 -9999.000 -9999.000 -9999.000 -9999.000 -9999.000 -9999.000 -9999.000 -9999.000 -9999.000 -9999.000 -9999.000 -9999.000 -9999.000 -9999.000 -9999.000 -9999.000 -9999.000 -9999.000 -9999.000 -9999.000 -9999.000 -9999.000 -9999.000 -9999.000
-9999.000 -9999.000 -9999.000 -9999.000 -9999.000 -9999.000 -9999.000 -9999.000 -9999.000 -9999.000 -9999.000 -9999.000 -9999.000 -9999.000 -9999.000 1905.299 1935.503 1946.614 1950.586 1941.386 1933.459 1922.627 1910.314 1892.612 1890.678 1897.307 1907.135 1919.126 1931.151 1950.440 1969.096 1987.934 2010.065 2026.934 2037.615 2050.825 2060.061 2063.636 2073.885 2081.761 2089.709 2099.504 2103.006 2096.317 2083.833 -9999.000 -9999.000 -9999.000 -9999.000 -9999.000 -9999.000 -9999.000 -9999.000 -9999.000 -9999.000 -9999.000 -9999.000 -9999.000 -9999.000 -9999.000 -9999.000 -9999.000 -9999.000 -9999.000 -9999.000 -9999.000 -9999.000 -9999.000 -9999.000 -9999.000 -9999.000 -9999.000 -9999.000 -9999.000 -9999.000 -9999.000 -9999.000 -9999.000 -9999.000 -9999.000 -9999.000 -9999.000 -9999.000 -9999.000 -9999.000 -9999.000 -9999.000 -9999.000
-9999.000 -9999.000 -9999.000 -9999.000 -9999.000 -9999.000 -9999.000 -9999.000 -9999.000 -9999.000 -9999.000 -9999.000 -9999.000 -9999.000 -9999.000 -9999.000 1927.667 1954.403 1955.663 1952.194 1943.878 1931.691 1918.304 1903.668 1905.526 1910.982 1918.578 1932.930 1941.345 1956.653 1973.630 1995.904 2022.035 2038.930 2054.003 2067.301 2074.507 2077.955 2086.665 2095.894 2103.822 2116.057 2117.868 2110.796 -9999.000 -9999.000 -9999.000 -9999.000 -9999.000 -9999.000 -9999.000 -9999.000 -9999.000 -9999.000 -9999.000 -9999.000 -9999.000 -9999.000 -9999.000 -9999.000 -9999.000 -9999.000 -9999.000 -9999.000 -9999.000 -9999.000 -9999.000 -9999.000 -9999.000 -9999.000 -9999.000 -9999.000 -9999.000 -9999.000 -9999.000 -9999.000 -9999.000 -9999.000 -9999.000 -9999.000 -9999.000 -9999.000 -9999.000 -9999.000 -9999.000 -9999.000 -9999.000 -9999.000
-9999.000 -9999.000 -9999.000 -9999.000 -9999.000 -9999.000 -9999.000 -9999.000 -9999.000 -9999.000 -9999.000 -9999.000 -9999.000 -9999.000 -9999.000 -9999.000 -9999.000 -9999.000 1959.249 1958.982 1954.386 1940.466 1925.863 1916.282 1919.533 1921.381 1926.023 1937.377 1956.214 1969.966 1985.238 2004.021 2031.822 2051.318 2066.618 2079.652 2088.644 2093.575 2101.038 2111.463 2119.965 2132.694 2132.064 -9999.000 -9999.000 -9999.000 -9999.000 -9999.000 -9999.000 -9999.000 -9999.000 -9999.000 -9999.000 -9999.000 -9999.000 -9999.000 -9999.000 -9999.000 -9999.000 -9999.000 -9999.000 -9999.000 -9999.000 -9999.000 -9999.000 -9999.000 -9999.000 -9999.000 -9999.000 -9999.000 -9999.000 -9999.000 -9999.000 -9999.000 -9999.000 -9999.000 -9999.000 -9999.000 -9999.000 -9999.000 -9999.000 -9999.000 -9999.000 -9999.000 -9999.000 -9999.000 -9999.000 -9999.000
-9999.000 -9999.000 -9999.000 -9999.000 -9999.000 -9999.000 -9999.000 -9999.000 -9999.000 -9999.000 -9999.000 -9999.000 -9999.000 -9999.000 -9999.000 -9999.000 -9999.000 -9999.000 -9999.000 -9999.000 1965.993 1950.165 1936.440 1935.226 1932.269 1936.282 1938.630 1948.713 1967.641 1982.182 2003.900 2028.962 2037.907 2059.257 2078.662 2092.243 2102.470 2114.167 2124.987 2133.995 2140.575 2140.371 -9999.000 -9999.000 -9999.000 -9999.000 -9999.000 -9999.000 -9999.000 -9999.000 -9999.000 -9999.000 -9999.000 -9999.000 -9999.000 -9999.000 -9999.000 -9999.000 -9999.000 -9999.000 -9999.000 -9999.000 -9999.000 -9999.000 -9999.000 -9999.000 -9999.000 -9999.000 -9999.000 -9999.000 -9999.000 -9999.000 -9999.000 -9999.000 -9999.000 -9999.000 -9999.000 -9999.000 -9999.000 -9999.000 -9999.000 -9999.000 -9999.000 -9999.000 -9999.000 -9999.000 -9999.000 -9999.000
-9999.000 -9999.000 -9999.000 -9999.000 -9999.000 -9999.000 -9999.000 -9999.000 -9999.000 -9999.000 -9999.000 -9999.000 -9999.000 -9999.000 -9999.000 -9999.000 -9999.000 -9999.000 -9999.000 -9999.000 -9999.000 -9999.000 1949.436 1955.753 1948.184 1952.023 1956.773 1966.916 1978.368 1994.822 2025.665 2045.003 2058.551 2063.765 2085.124 2111.764 2124.459 2139.764 2156.227 2160.460 2154.459 2147.099 -9999.000 -9999.000 -9999.000 -9999.000 -9999.000 -9999.000 -9999.000 -9999.000 -9999.000 -9999.000 -9999.000 -9999.000 -9999.000 -9999.000 -9999.000 -9999.000 -9999.000 -9999.000 -9999.000 -9999.000 -9999.000 -9999.000 -9999.000 -9999.000 -9999.000 -9999.000 -9999.000 -9999.000 -9999.000 -9999.000 -9999.000 -9999.000 -9999.000 -9999.000 -9999.000 -9999.000 -9999.000 -9999.000 -9999.000 -9999.000 -9999.000 -9999.000 -9999.000 -9999.000 -9999.000 -9999.000
-9999.000 -9999.000 -9999.000 -9999.000 -9999.000 -9999.000 -9999.000 -9999.000 -9999.000 -9999.000 -9999.000 -9999.000 -9999.000 -9999.000 -9999.000 -9999.000 -9999.000 -9999.000 -9999.000 -9999.000 -9999.000 -9999.000 -9999.000 1971.025 1963.282 1967.531 1975.317 1983.802 1991.159 2009.939 2031.101 2059.630 2078.380 2084.805 2101.777 2131.037 2146.847 2164.915 2172.371 2171.241 2164.038 -9999.000 -9999.000 -9999.000 -9999.000 -9999.000 -9999.000 -9999.000 -9999.000 -9999.000 -9999.000 -9999.000 -9999.000 -9999.000 -9999.000 -9999.000 -9999.000 -9999.000 -9999.000 -9999.000 -9999.000 -9999.000 -9999.000 -9999.000 -9999.000 -9999.000 -9999.000 -9999.000 -9999.000 -9999.000 -9999.000 -9999.000 -9999.000 -9999.000 -9999.000 -9999.000 -9999.000 -9999.000 -9999.000 -9999.000 -9999.000 -9999.000 -9999.000 -9999.000 -9999.000 -9999.000 -9999.000 -9999.000
-9999.000 -9999.000 -9999.000 -9999.000 -9999.000 -9999.000 -9999.000 -9999.000 -9999.000 -9999.000 -9999.000 -9999.000 -9999.000 -9999.000 -9999.000 -9999.000 -9999.000 -9999.000 -9999.000 -9999.000 -9999.000 -9999.000 -9999.000 -9999.000 -9999.000 1986.955 1988.354 2002.554 2011.958 2022.642 2040.024 2060.482 2089.537 2109.539 2140.789 2153.409 2170.386 2184.939 2185.255 2179.541 -9999.000 -9999.000 -9999.000 -9999.000 -9999.000 -9999.000 -9999.000 -9999.000 -9999.000 -9999.000 -9999.000 -9999.000 -9999.000 -9999.000 -9999.000 -9999.000 -9999.000 -9999.000 -9999.000 -9999.000 -9999.000 -9999.000 -9999.000 -9999.000 -9999.000 -9999.000 -9999.000 -9999.000 -9999.000 -9999.000 -9999.000 -9999.000 -9999.000 -9999.000 -9999.000 -9999.000 -9999.000 -9999.000 -9999.000 -9999.000 -9999.000 -9999.000 -9999.000 -9999.000 -9999.000 -9999.000 -9999.000 -9999.000
-9999.000 -9999.000 -9999.000 -9999.000 -9999.000 -9999.000 -9999.000 -9999.000 -9999.000 -9999.000 -9999.000 -9999.000 -9999.000 -9999.000 -9999.000 -9999.000 -9999.000 -9999.000 -9999.000 -9999.000 -9999.000 -9999.000 -9999.000 -9999.000 -9999.000 -9999.000 -9999.000 2018.206 2031.345 2039.225 2056.872 2075.021 2109.442 2146.100 2160.410 2180.298 2186.901 2197.357 2194.214 2181.659 -9999.000 -9999.000 -9999.000 -9999.000 -9999.000 -9999.000 -9999.000 -9999.000 -9999.000 -9999.000 -9999.000 -9999.000 -9999.000 -9999.000 -9999.000 -9999.000 -9999.000 -9999.000 -9999.000 -9999.000 -9999.000 -9999.000 -9999.000 -9999.000 -9999.000 -9999.000 -9999.000 -9999.000 -9999.000 -9999.000 -9999.000 -9999.000 -9999.000 -9999.000 -9999.000 -9999.000 -9999.000 -9999.000 -9999.000 -9999.000 -9999.000 -9999.000 -9999.000 -9999.000 -9999.000 -9999.000 -9999.000 -9999.000
