ncols 130
nrows 77
xllcenter 247320.75
yllcenter 350917.47
cellsize 20.00
NODATA_value -9999.000
-9999.000 -9999.000 -9999.000 -9999.000 -9999.000 2296.009 2308.147 2326.431 2340.700 2350.801 2356.824 2368.247 2380.608 2392.367 2403.557 2484.894 2522.879 2556.409 2572.013 2548.963 2522.493 2479.277 2436.278 2383.579 2370.099 2359.699 2350.488 2355.260 2355.794 2347.188 2338.849 2329.969 2319.509 2308.300 2296.980 2284.751 2273.508 2261.240 2248.709 2235.873 2223.437 2209.974 2198.378 2187.374 2176.644 2165.982 2156.460 2149.328 2138.267 2124.890 2118.589 2114.271 2111.739 2110.581 2108.054 2103.522 2100.620 2092.269 2073.872 2038.352 2015.190 -9999.000 -9999.000 -9999.000 -9999.000 -9999.000 -9999.000 -9999.000 -9999.000 -9999.000 -9999.000 -9999.000 -9999.000 -9999.000 -9999.000 -9999.000 -9999.000 -9999.000 -9999.000 -9999.000 -9999.000 -9999.000 -9999.000 -9999.000 -9999.000 -9999.000 -9999.000 -9999.000 -9999.000 -9999.000 -9999.000 -9999.000 -9999.000 -9999.000 -9999.000 -9999.000 -9999.000 -9999.000 -9999.000 -9999.000 -9999.000 -9999.000 -9999.000 -9999.000 -9999.000 -9999.000 -9999.000 -9999.000 -9999.000 -9999.000 -9999.000 -9999.000 -9999.000 -9999.000 -9999.000 -9999.000 -9999.000 -9999.000 -9999.000 -9999.000 -9999.000 -9999.000 -9999.000 -9999.000 -9999.000 -9999.000 -9999.000 -9999.000 -9999.000 -9999.000
-9999.000 -9999.000 -9999.000 -9999.000 2296.531 2309.397 2334.697 2341.545 2355.331 2365.191 2375.238 2380.550 2388.135 2397.095 2414.921 2488.271 2526.041 2542.135 2526.230 2549.293 2524.523 2498.989 2416.345 2376.480 2356.802 2342.671 2340.138 2333.875 2346.271 2338.270 2328.803 2320.599 2311.365 2301.492 2290.345 2278.636 2267.031 2255.801 2244.696 2232.376 2220.159 2208.091 2196.409 2185.122 2174.088 2163.841 2155.908 2147.750 2134.665 2128.917 2125.414 2120.771 2119.248 2116.706 2112.049 2106.687 2103.266 2089.966 2064.199 2015.667 1974.815 1953.125 1953.372 -9999.000 -9999.000 -9999.000 -9999.000 -9999.000 -9999.000 -9999.000 -9999.000 -9999.000 -9999.000 -9999.000 -9999.000 -9999.000 -9999.000 -9999.000 -9999.000 -9999.000 -9999.000 -9999.000 -9999.000 -9999.000 -9999.000 -9999.000 -9999.000 -9999.000 -9999.000 -9999.000 -9999.000 -9999.000 -9999.000 -9999.000 -9999.000 -9999.000 -9999.000 -9999.000 -9999.000 -9999.000 -9999.000 -9999.000 -9999.000 -9999.000 -9999.000 -9999.000 -9999.000 -9999.000 -9999.000 -9999.000 -9999.000 -9999.000 -9999.000 -9999.000 -9999.000 -9999.000 -9999.000 -9999.000 -9999.000 -9999.000 -9999.000 -9999.000 -9999.000 -9999.000 -9999.000 -9999.000 -9999.000 -9999.000 -9999.000 -9999.000
-9999.000 -9999.000 -9999.000 -9999.000 2302.928 2322.263 2341.242 2354.774 2363.800 2375.619 2386.690 2391.480 2398.658 2423.909 2429.440 2486.136 2499.167 2471.750 2476.320 2463.714 2479.471 2476.035 2409.791 2376.863 2359.184 2335.248 2323.296 2316.862 2332.768 2329.769 2322.798 2311.562 2302.959 2294.123 2284.322 2273.672 2262.444 2250.796 2239.111 2228.021 2216.731 2204.918 2193.542 2183.059 2172.625 2162.519 2153.334 2144.286 2137.351 2132.542 2131.308 2128.792 2125.152 2121.375 2116.379 2111.265 2104.398 2062.897 2028.051 1993.895 1979.690 1983.837 1977.420 1951.373 1927.832 -9999.000 -9999.000 -9999.000 -9999.000 -9999.000 -9999.000 -9999.000 -9999.000 -9999.000 -9999.000 -9999.000 -9999.000 -9999.000 -9999.000 -9999.000 -9999.000 -9999.000 -9999.000 -9999.000 -9999.000 -9999.000 -9999.000 -9999.000 -9999.000 -9999.000 -9999.000 -9999.000 -9999.000 -9999.000 -9999.000 -9999.000 -9999.000 -9999.000 -9999.000 -9999.000 -9999.000 -9999.000 -9999.000 -9999.000 -9999.000 -9999.000 -9999.000 -9999.000 -9999.000 -9999.000 -9999.000 -9999.000 -9999.000 -9999.000 -9999.000 -9999.000 -9999.000 -9999.000 -9999.000 -9999.000 -9999.000 -9999.000 -9999.000 -9999.000 -9999.000 -9999.000 -9999.000 -9999.000 -9999.000 -9999.000
-9999.000 -9999.000 -9999.000 -9999.000 2292.245 2328.967 2349.611 2363.617 2373.489 2385.556 2397.363 2405.848 2413.446 2445.388 2450.607 2483.052 2486.957 2419.777 2413.825 2408.632 2412.220 2396.043 2383.160 2369.497 2347.755 2326.424 2311.966 2301.760 2311.681 2321.329 2318.879 2303.251 2294.492 2286.534 2277.948 2268.614 2259.486 2248.532 2234.557 2224.235 2213.661 2202.883 2191.903 2181.384 2171.175 2161.789 2152.941 2147.697 2144.621 2140.057 2135.448 2133.024 2129.323 2124.628 2115.108 2102.248 2075.980 2045.679 2017.632 2003.189 1997.686 1998.181 1987.903 1969.188 1937.734 1922.410 1875.656 -9999.000 -9999.000 -9999.000 -9999.000 -9999.000 -9999.000 -9999.000 -9999.000 -9999.000 -9999.000 -9999.000 -9999.000 -9999.000 -9999.000 -9999.000 -9999.000 -9999.000 -9999.000 -9999.000 -9999.000 -9999.000 -9999.000 -9999.000 -9999.000 -9999.000 -9999.000 -9999.000 -9999.000 -9999.000 -9999.000 -9999.000 -9999.000 -9999.000 -9999.000 -9999.000 -9999.000 -9999.000 -9999.000 -9999.000 -9999.000 -9999.000 -9999.000 -9999.000 -9999.000 -9999.000 -9999.000 -9999.000 -9999.000 -9999.000 -9999.000 -9999.000 -9999.000 -9999.000 -9999.000 -9999.000 -9999.000 -9999.000 -9999.000 -9999.000 -9999.000 -9999.000 -9999.000 -9999.000
-9999.000 -9999.000 -9999.000 2295.012 2314.281 2339.957 2355.540 2367.803 2383.917 2398.678 2413.687 2421.402 2446.756 2439.113 2424.994 2417.230 2409.059 2399.208 2386.245 2378.362 2388.783 2379.291 2363.045 2352.478 2339.277 2324.206 2312.334 2294.058 2300.661 2307.664 2297.986 2290.989 2285.257 2280.954 2272.945 2263.297 2257.573 2246.817 2236.634 2221.175 2209.666 2201.694 2191.158 2181.884 2171.684 2163.446 2156.851 2153.808 2150.917 2149.574 2144.588 2138.231 2133.931 2122.473 2098.345 2069.230 2049.635 2054.329 2047.204 2029.644 2002.417 1979.613 1959.234 1942.631 1934.202 1916.667 1884.763 1845.047 1828.343 -9999.000 -9999.000 -9999.000 -9999.000 -9999.000 -9999.000 -9999.000 -9999.000 -9999.000 -9999.000 -9999.000 -9999.000 -9999.000 -9999.000 -9999.000 -9999.000 -9999.000 -9999.000 -9999.000 -9999.000 -9999.000 -9999.000 -9999.000 -9999.000 -9999.000 -9999.000 -9999.000 -9999.000 -9999.000 -9999.000 -9999.000 -9999.000 -9999.000 -9999.000 -9999.000 -9999.000 -9999.000 -9999.000 -9999.000 -9999.000 -9999.000 -9999.000 -9999.000 -9999.000 -9999.000 -9999.000 -9999.000 -9999.000 -9999.000 -9999.000 -9999.000 -9999.000 -9999.000 -9999.000 -9999.000 -9999.000 -9999.000 -9999.000 -9999.000 -9999.000 -9999.000
-9999.000 -9999.000 -9999.000 2307.785 2336.475 2354.306 2369.284 2392.262 2404.301 2408.250 2423.662 2436.461 2432.360 2419.736 2410.412 2404.153 2396.688 2389.411 2375.286 2360.051 2353.728 2349.146 2349.911 2339.637 2327.109 2325.550 2298.653 2278.750 2271.849 2295.731 2283.746 2271.139 2285.430 2279.647 2268.900 2257.281 2245.334 2240.280 2231.720 2215.647 2209.216 2203.663 2193.979 2186.323 2177.773 2171.185 2166.964 2162.291 2161.884 2158.980 2151.641 2144.611 2137.940 2125.431 2088.573 2090.727 2076.608 2071.976 2052.733 2035.928 2022.046 1993.787 1970.324 1953.163 1932.813 1904.453 1880.114 1851.637 1827.229 1805.898 1794.967 -9999.000 -9999.000 -9999.000 -9999.000 -9999.000 -9999.000 -9999.000 -9999.000 -9999.000 -9999.000 -9999.000 -9999.000 -9999.000 -9999.000 -9999.000 -9999.000 -9999.000 -9999.000 -9999.000 -9999.000 -9999.000 -9999.000 -9999.000 -9999.000 -9999.000 -9999.000 -9999.000 -9999.000 -9999.000 -9999.000 -9999.000 -9999.000 -9999.000 -9999.000 -9999.000 -9999.000 -9999.000 -9999.000 -9999.000 -9999.000 -9999.000 -9999.000 -9999.000 -9999.000 -9999.000 -9999.000 -9999.000 -9999.000 -9999.000 -9999.000 -9999.000 -9999.000 -9999.000 -9999.000 -9999.000 -9999.000 -9999.000 -9999.000 -9999.000
-9999.000 -9999.000 -9999.000 2322.975 2349.006 2369.271 2383.271 2400.521 2414.971 2420.116 2433.917 2434.391 2421.502 2410.791 2400.401 2392.727 2386.122 2380.026 2373.082 2359.971 2340.875 2325.396 2337.539 2322.066 2307.812 2292.549 2275.565 2262.479 2268.247 2282.288 2262.874 2249.906 2278.203 2270.104 2264.281 2250.779 2234.294 2225.919 2223.205 2216.144 2207.733 2201.629 2195.313 2189.257 2182.811 2178.176 2172.395 2170.435 2167.360 2163.438 2159.200 2149.292 2144.514 2111.002 2111.337 2114.074 2103.429 2087.767 2071.884 2041.132 2025.970 2007.514 1992.403 1973.581 1955.762 1925.331 1882.795 1865.131 1819.007 1805.353 1786.197 1775.665 1777.592 -9999.000 -9999.000 -9999.000 -9999.000 -9999.000 -9999.000 -9999.000 -9999.000 -9999.000 -9999.000 -9999.000 -9999.000 -9999.000 -9999.000 -9999.000 -9999.000 -9999.000 -9999.000 -9999.000 -9999.000 -9999.000 -9999.000 -9999.000 -9999.000 -9999.000 -9999.000 -9999.000 -9999.000 -9999.000 -9999.000 -9999.000 -9999.000 -9999.000 -9999.000 -9999.000 -9999.000 -9999.000 -9999.000 -9999.000 -9999.000 -9999.000 -9999.000 -9999.000 -9999.000 -9999.000 -9999.000 -9999.000 -9999.000 -9999.000 -9999.000 -9999.000 -9999.000 -9999.000 -9999.000 -9999.000 -9999.000 -9999.000
-9999.000 -9999.000 2305.656 2311.437 2343.318 2386.875 2401.321 2413.039 2426.486 2433.584 2440.415 2428.448 2416.904 2409.485 2400.477 2391.959 2382.642 2374.268 2360.181 2346.363 2340.374 2315.600 2306.792 2294.747 2284.935 2277.169 2262.221 2253.043 2237.026 2238.212 2245.099 2237.424 2235.651 2243.376 2260.841 2247.357 2229.726 2213.271 2206.853 2203.722 2193.637 2187.695 2198.567 2191.594 2187.015 2183.045 2179.290 2175.624 2171.873 2166.742 2163.486 2149.892 2136.719 2142.312 2141.971 2135.724 2116.839 2098.569 2065.710 2043.595 2019.640 1996.808 1970.968 1978.677 1957.925 1943.810 1889.277 1842.695 1814.475 1789.142 1774.162 1766.847 1758.254 1768.084 -9999.000 -9999.000 -9999.000 -9999.000 -9999.000 -9999.000 -9999.000 -9999.000 -9999.000 -9999.000 -9999.000 -9999.000 -9999.000 -9999.000 -9999.000 -9999.000 -9999.000 -9999.000 -9999.000 -9999.000 -9999.000 -9999.000 -9999.000 -9999.000 -9999.000 -9999.000 -9999.000 -9999.000 -9999.000 -9999.000 -9999.000 -9999.000 -9999.000 -9999.000 -9999.000 -9999.000 -9999.000 -9999.000 -9999.000 -9999.000 -9999.000 -9999.000 -9999.000 -9999.000 -9999.000 -9999.000 -9999.000 -9999.000 -9999.000 -9999.000 -9999.000 -9999.000 -9999.000 -9999.000 -9999.000 -9999.000
-9999.000 -9999.000 2319.027 2325.361 2364.105 2401.659 2416.421 2426.656 2435.775 2448.673 2439.026 2426.159 2419.364 2412.487 2401.699 2390.498 2380.890 2368.270 2357.169 2340.847 2324.512 2308.677 2293.369 2284.605 2272.870 2260.696 2249.204 2238.442 2228.333 2218.678 2214.258 2207.761 2208.686 2207.432 2214.611 2224.796 2226.735 2211.816 2195.457 2182.303 2176.559 2172.790 2179.404 2176.920 2189.560 2172.838 2171.953 2180.314 2174.486 2172.815 2168.624 2164.772 2166.416 2158.588 2150.717 2140.241 2115.724 2104.661 2070.377 2048.989 2027.056 2016.871 1977.560 1938.770 1922.134 1907.681 1896.592 1846.486 1805.803 1782.374 1768.551 1754.805 1745.991 1749.254 1759.846 1772.490 -9999.000 -9999.000 -9999.000 -9999.000 -9999.000 -9999.000 -9999.000 -9999.000 -9999.000 -9999.000 -9999.000 -9999.000 -9999.000 -9999.000 -9999.000 -9999.000 -9999.000 -9999.000 -9999.000 -9999.000 -9999.000 -9999.000 -9999.000 -9999.000 -9999.000 -9999.000 -9999.000 -9999.000 -9999.000 -9999.000 -9999.000 -9999.000 -9999.000 -9999.000 -9999.000 -9999.000 -9999.000 -9999.000 -9999.000 -9999.000 -9999.000 -9999.000 -9999.000 -9999.000 -9999.000 -9999.000 -9999.000 -9999.000 -9999.000 -9999.000 -9999.000 -9999.000 -9999.000 -9999.000
-9999.000 -9999.000 2332.231 2338.224 2378.984 2417.231 2430.418 2443.777 2446.111 2453.920 2439.456 2430.317 2420.490 2412.673 2402.624 2397.078 2386.420 2364.143 2341.213 2329.920 2315.087 2302.136 2291.559 2272.199 2262.499 2252.149 2242.073 2229.402 2219.866 2210.395 2200.551 2195.402 2192.022 2190.152 2195.530 2213.724 2223.188 2207.147 2189.326 2173.711 2159.793 2156.431 2157.416 2158.662 2167.202 2156.694 2149.710 2171.760 2171.326 2182.567 2176.134 2179.958 2158.299 2145.622 2109.463 2099.726 2101.142 2071.895 2048.516 2033.537 2016.296 1995.789 1980.489 1958.344 1941.963 1904.340 1868.662 1855.056 1823.491 1781.227 1759.525 1747.137 1733.688 1732.793 1742.919 1758.891 1769.806 1757.417 -9999.000 -9999.000 -9999.000 -9999.000 -9999.000 -9999.000 -9999.000 -9999.000 -9999.000 -9999.000 -9999.000 -9999.000 -9999.000 -9999.000 -9999.000 -9999.000 -9999.000 -9999.000 -9999.000 -9999.000 -9999.000 -9999.000 -9999.000 -9999.000 -9999.000 -9999.000 -9999.000 -9999.000 -9999.000 -9999.000 -9999.000 -9999.000 -9999.000 -9999.000 -9999.000 -9999.000 -9999.000 -9999.000 -9999.000 -9999.000 -9999.000 -9999.000 -9999.000 -9999.000 -9999.000 -9999.000 -9999.000 -9999.000 -9999.000 -9999.000 -9999.000 -9999.000
-9999.000 2333.750 2340.758 2352.976 2415.471 2431.274 2441.398 2453.187 2460.866 2454.681 2443.828 2433.502 2424.025 2415.340 2408.657 2402.346 2386.440 2358.656 2333.630 2316.408 2306.152 2294.354 2280.952 2265.896 2252.641 2239.108 2232.398 2222.314 2211.484 2201.747 2191.499 2182.065 2175.208 2173.716 2177.871 2203.782 2206.757 2204.460 2189.039 2172.069 2155.311 2135.756 2124.883 2126.951 2115.604 2111.259 2114.622 2119.421 2170.682 2182.767 2173.553 2133.630 2097.263 2079.260 2057.389 2041.053 2048.147 2035.716 2002.633 1994.184 1982.744 1965.942 1948.460 1940.484 1920.972 1906.120 1866.376 1829.681 1818.004 1795.016 1763.208 1735.558 1724.604 1715.122 1728.698 1744.218 1744.307 1745.795 1722.930 1685.853 -9999.000 -9999.000 -9999.000 -9999.000 -9999.000 -9999.000 -9999.000 -9999.000 -9999.000 -9999.000 -9999.000 -9999.000 -9999.000 -9999.000 -9999.000 -9999.000 -9999.000 -9999.000 -9999.000 -9999.000 -9999.000 -9999.000 -9999.000 -9999.000 -9999.000 -9999.000 -9999.000 -9999.000 -9999.000 -9999.000 -9999.000 -9999.000 -9999.000 -9999.000 -9999.000 -9999.000 -9999.000 -9999.000 -9999.000 -9999.000 -9999.000 -9999.000 -9999.000 -9999.000 -9999.000 -9999.000 -9999.000 -9999.000 -9999.000 -9999.000
-9999.000 2345.397 2362.552 2363.050 2408.960 2440.380 2459.908 2461.926 2465.703 2456.861 2446.326 2437.367 2427.308 2419.900 2411.038 2405.736 2358.826 2341.632 2324.580 2309.840 2296.591 2288.128 2276.049 2250.527 2240.080 2232.906 2221.218 2214.057 2203.699 2194.477 2183.193 2172.806 2163.332 2159.018 2156.851 2170.605 2179.199 2193.145 2182.059 2172.435 2151.609 2132.677 2111.491 2100.948 2093.664 2070.857 2052.466 2075.098 2095.770 2088.668 2088.079 2079.060 2054.229 2039.450 2015.407 2019.692 1995.824 2000.773 1974.932 1972.289 1964.218 1951.673 1927.193 1900.671 1897.835 1869.778 1835.671 1816.937 1798.456 1781.693 1755.034 1727.994 1712.874 1702.243 1704.322 1727.293 1728.107 1731.168 1712.582 1680.744 1662.428 1646.748 -9999.000 -9999.000 -9999.000 -9999.000 -9999.000 -9999.000 -9999.000 -9999.000 -9999.000 -9999.000 -9999.000 -9999.000 -9999.000 -9999.000 -9999.000 -9999.000 -9999.000 -9999.000 -9999.000 -9999.000 -9999.000 -9999.000 -9999.000 -9999.000 -9999.000 -9999.000 -9999.000 -9999.000 -9999.000 -9999.000 -9999.000 -9999.000 -9999.000 -9999.000 -9999.000 -9999.000 -9999.000 -9999.000 -9999.000 -9999.000 -9999.000 -9999.000 -9999.000 -9999.000 -9999.000 -9999.000 -9999.000 -9999.000
-9999.000 2354.444 2380.294 2375.510 2405.365 2455.641 2467.174 2473.927 2471.367 2459.400 2449.944 2441.340 2431.681 2427.443 2400.442 2378.125 2362.521 2346.252 2323.276 2306.749 2290.499 2276.342 2261.119 2242.189 2231.083 2222.408 2214.540 2202.862 2194.953 2185.733 2176.872 2164.217 2153.796 2145.055 2140.279 2145.947 2161.535 2182.464 2168.198 2154.866 2128.683 2112.126 2090.210 2069.826 2068.068 2042.402 2032.343 2051.931 2047.676 2045.993 2031.998 2068.582 2043.573 2019.533 2004.938 1976.968 1972.188 1961.274 1954.997 1955.773 1934.148 1892.197 1876.488 1855.637 1839.001 1833.330 1822.916 1804.632 1785.669 1765.041 1745.967 1725.251 1707.087 1690.253 1687.633 1700.942 1711.013 1698.265 1699.968 1677.778 1660.980 1644.652 1628.732 -9999.000 -9999.000 -9999.000 -9999.000 -9999.000 -9999.000 -9999.000 -9999.000 -9999.000 -9999.000 -9999.000 -9999.000 -9999.000 -9999.000 -9999.000 -9999.000 -9999.000 -9999.000 -9999.000 -9999.000 -9999.000 -9999.000 -9999.000 -9999.000 -9999.000 -9999.000 -9999.000 -9999.000 -9999.000 -9999.000 -9999.000 -9999.000 -9999.000 -9999.000 -9999.000 -9999.000 -9999.000 -9999.000 -9999.000 -9999.000 -9999.000 -9999.000 -9999.000 -9999.000 -9999.000 -9999.000 -9999.000
2367.435 2369.945 2395.515 2398.096 2413.823 2445.988 2472.615 2472.395 2474.415 2462.966 2453.457 2445.777 2438.713 2428.743 2399.458 2375.152 2358.146 2341.206 2325.080 2309.263 2294.842 2277.009 2254.395 2240.019 2227.404 2215.979 2206.186 2197.157 2187.034 2176.814 2167.201 2159.552 2146.721 2135.587 2126.493 2121.250 2119.261 2126.963 2137.756 2134.166 2119.857 2083.416 2065.016 2043.680 2044.161 2020.206 2001.369 2035.488 2017.325 2016.525 1996.690 2038.205 2028.046 2012.211 1980.033 1959.953 1947.816 1927.175 1926.659 1889.147 1871.038 1858.594 1845.228 1831.328 1822.295 1813.075 1805.452 1788.960 1772.155 1752.411 1729.447 1717.092 1700.437 1679.055 1670.680 1672.345 1673.068 1666.499 1679.490 1672.656 1662.075 1646.980 1631.362 1614.307 1598.632 -9999.000 -9999.000 -9999.000 -9999.000 -9999.000 -9999.000 -9999.000 -9999.000 -9999.000 -9999.000 -9999.000 -9999.000 -9999.000 -9999.000 -9999.000 -9999.000 -9999.000 -9999.000 -9999.000 -9999.000 -9999.000 -9999.000 -9999.000 -9999.000 -9999.000 -9999.000 -9999.000 -9999.000 -9999.000 -9999.000 -9999.000 -9999.000 -9999.000 -9999.000 -9999.000 -9999.000 -9999.000 -9999.000 -9999.000 -9999.000 -9999.000 -9999.000 -9999.000 -9999.000 -9999.000
2382.235 2382.450 2401.199 2416.982 2409.020 2429.430 2453.154 2457.487 2462.187 2458.438 2457.262 2450.704 2442.670 2430.637 2396.072 2378.280 2361.800 2345.256 2328.945 2313.948 2294.794 2271.245 2247.638 2233.678 2222.033 2211.164 2200.639 2190.448 2180.962 2169.981 2159.125 2149.371 2141.034 2132.264 2118.650 2108.626 2103.786 2095.911 2088.358 2089.035 2076.718 2055.851 2038.675 2021.113 2009.255 2000.529 1978.336 2003.624 1976.637 1974.239 1968.145 1951.911 1998.331 2008.588 1990.481 1961.232 1932.868 1902.691 1884.202 1876.272 1864.147 1851.642 1837.276 1823.179 1808.085 1791.003 1786.095 1784.293 1757.859 1746.517 1727.891 1701.062 1686.169 1672.726 1659.604 1655.060 1649.054 1651.152 1654.953 1658.232 1654.666 1643.193 1628.128 1612.506 1596.829 1582.024 -9999.000 -9999.000 -9999.000 -9999.000 -9999.000 -9999.000 -9999.000 -9999.000 -9999.000 -9999.000 -9999.000 -9999.000 -9999.000 -9999.000 -9999.000 -9999.000 -9999.000 -9999.000 -9999.000 -9999.000 -9999.000 -9999.000 -9999.000 -9999.000 -9999.000 -9999.000 -9999.000 -9999.000 -9999.000 -9999.000 -9999.000 -9999.000 -9999.000 -9999.000 -9999.000 -9999.000 -9999.000 -9999.000 -9999.000 -9999.000 -9999.000 -9999.000 -9999.000 -9999.000
2395.942 2400.736 2418.595 2439.146 2429.026 2438.435 2435.525 2431.885 2434.408 2438.047 2433.357 2439.945 2443.137 2412.192 2393.906 2376.772 2357.138 2342.455 2326.506 2308.493 2284.069 2263.115 2247.798 2233.689 2219.602 2206.863 2195.211 2184.402 2175.392 2166.206 2156.108 2142.405 2131.375 2122.464 2114.851 2103.354 2089.205 2084.812 2075.883 2066.446 2059.832 2049.771 2035.220 2019.885 2003.253 1986.877 1971.545 1955.780 1940.004 1923.667 1908.289 1893.479 1908.890 1955.369 1976.763 1938.068 1910.290 1889.714 1873.248 1860.119 1852.366 1843.631 1831.113 1816.514 1804.452 1779.874 1761.206 1762.704 1742.597 1732.753 1716.339 1698.765 1677.659 1664.990 1653.557 1640.957 1634.228 1635.271 1635.191 1637.397 1643.866 1637.326 1624.574 1610.745 1596.242 1581.985 1566.101 -9999.000 -9999.000 -9999.000 -9999.000 -9999.000 -9999.000 -9999.000 -9999.000 -9999.000 -9999.000 -9999.000 -9999.000 -9999.000 -9999.000 -9999.000 -9999.000 -9999.000 -9999.000 -9999.000 -9999.000 -9999.000 -9999.000 -9999.000 -9999.000 -9999.000 -9999.000 -9999.000 -9999.000 -9999.000 -9999.000 -9999.000 -9999.000 -9999.000 -9999.000 -9999.000 -9999.000 -9999.000 -9999.000 -9999.000 -9999.000 -9999.000 -9999.000 -9999.000
2410.071 2417.641 2431.599 2447.640 2442.695 2425.374 2418.834 2419.100 2413.563 2415.950 2406.815 2409.663 2419.351 2415.520 2389.428 2369.189 2351.513 2333.060 2321.185 2300.076 2281.198 2262.187 2246.904 2232.983 2219.115 2205.997 2193.826 2182.029 2171.205 2163.461 2154.327 2144.663 2130.456 2116.604 2104.914 2096.916 2086.782 2071.197 2065.709 2055.132 2042.750 2045.147 2037.031 2023.282 2007.900 1993.311 1978.591 1955.477 1936.193 1926.492 1909.131 1892.830 1871.253 1863.075 1893.895 1917.780 1892.489 1887.895 1871.347 1855.066 1837.539 1823.285 1813.299 1805.625 1791.720 1775.348 1748.686 1738.289 1730.161 1715.821 1700.493 1685.238 1671.362 1657.400 1642.470 1634.046 1621.737 1619.021 1616.379 1619.852 1623.981 1629.567 1616.590 1603.092 1592.123 1576.537 1565.237 1549.363 -9999.000 -9999.000 -9999.000 -9999.000 -9999.000 -9999.000 -9999.000 -9999.000 -9999.000 -9999.000 -9999.000 -9999.000 -9999.000 -9999.000 -9999.000 -9999.000 -9999.000 -9999.000 -9999.000 -9999.000 -9999.000 -9999.000 -9999.000 -9999.000 -9999.000 -9999.000 -9999.000 -9999.000 -9999.000 -9999.000 -9999.000 -9999.000 -9999.000 -9999.000 -9999.000 -9999.000 -9999.000 -9999.000 -9999.000 -9999.000 -9999.000 -9999.000
-9999.000 2434.970 2450.683 2458.939 2448.699 2422.288 2405.434 2390.237 2393.695 2402.165 2384.316 2400.410 2403.207 2398.951 2387.732 2363.642 2340.894 2320.624 2307.154 2289.001 2274.465 2260.616 2246.565 2232.178 2219.543 2207.270 2194.705 2183.031 2171.613 2159.898 2149.412 2139.489 2129.339 2117.045 2104.978 2091.859 2078.205 2070.507 2057.071 2038.974 2031.148 2023.380 2035.229 2025.398 2011.807 1998.808 1982.961 1952.241 1931.547 1918.710 1918.779 1899.602 1865.081 1850.863 1852.401 1894.400 1871.678 1866.799 1862.767 1844.262 1829.648 1814.797 1797.591 1784.122 1769.847 1751.798 1741.500 1723.937 1711.187 1701.779 1691.867 1678.344 1664.056 1649.482 1636.809 1626.249 1613.871 1604.202 1600.626 1600.602 1600.947 1609.238 1599.554 1588.931 1576.632 1561.450 1554.740 1544.150 1524.503 -9999.000 -9999.000 -9999.000 -9999.000 -9999.000 -9999.000 -9999.000 -9999.000 -9999.000 -9999.000 -9999.000 -9999.000 -9999.000 -9999.000 -9999.000 -9999.000 -9999.000 -9999.000 -9999.000 -9999.000 -9999.000 -9999.000 -9999.000 -9999.000 -9999.000 -9999.000 -9999.000 -9999.000 -9999.000 -9999.000 -9999.000 -9999.000 -9999.000 -9999.000 -9999.000 -9999.000 -9999.000 -9999.000 -9999.000 -9999.000 -9999.000
-9999.000 2450.196 2454.763 2441.799 2429.630 2418.580 2394.066 2382.727 2367.503 2364.024 2363.349 2369.820 2377.860 2378.838 2373.077 2355.764 2338.955 2322.243 2307.094 2294.096 2274.958 2259.014 2245.465 2232.704 2218.761 2206.148 2193.860 2181.465 2169.459 2157.932 2146.189 2135.641 2125.852 2116.389 2107.296 2091.439 2077.590 2063.335 2049.700 2036.502 2018.515 2003.063 1997.015 1996.449 2014.302 2003.213 1982.015 1955.743 1936.812 1890.037 1922.650 1895.421 1864.289 1837.744 1828.960 1844.583 1840.730 1848.505 1860.152 1847.316 1827.795 1808.644 1800.390 1782.447 1755.708 1744.033 1728.656 1714.112 1699.966 1689.640 1678.206 1669.826 1657.345 1643.364 1628.909 1617.133 1605.162 1594.889 1586.928 1584.005 1584.028 1586.182 1582.483 1567.719 1556.682 1544.742 1535.869 1528.408 1516.806 1498.643 -9999.000 -9999.000 -9999.000 -9999.000 -9999.000 -9999.000 -9999.000 -9999.000 -9999.000 -9999.000 -9999.000 -9999.000 -9999.000 -9999.000 -9999.000 -9999.000 -9999.000 -9999.000 -9999.000 -9999.000 -9999.000 -9999.000 -9999.000 -9999.000 -9999.000 -9999.000 -9999.000 -9999.000 -9999.000 -9999.000 -9999.000 -9999.000 -9999.000 -9999.000 -9999.000 -9999.000 -9999.000 -9999.000 -9999.000 -9999.000
-9999.000 2464.427 2452.257 2429.675 2401.076 2387.212 2376.907 2371.960 2360.268 2343.963 2342.588 2360.195 2366.144 2362.429 2365.447 2350.656 2338.015 2333.605 2314.796 2298.961 2281.189 2262.796 2247.959 2235.810 2220.226 2206.645 2193.603 2180.627 2168.058 2155.990 2144.692 2133.877 2123.367 2114.521 2108.055 2096.469 2081.321 2068.892 2053.161 2033.922 2020.098 2003.050 1992.271 1972.726 1960.060 1980.137 1968.962 1948.308 1929.375 1900.521 1862.416 1889.924 1856.970 1833.057 1816.166 1823.320 1835.025 1813.528 1828.301 1837.150 1821.962 1797.094 1777.307 1755.692 1746.567 1734.588 1723.864 1712.595 1699.331 1686.446 1672.104 1656.332 1644.044 1635.210 1622.582 1608.496 1596.965 1585.522 1576.357 1569.344 1568.573 1566.127 1562.873 1550.514 1540.184 1531.175 1521.230 1511.402 1502.249 1490.406 1478.351 1466.809 -9999.000 -9999.000 -9999.000 -9999.000 -9999.000 -9999.000 -9999.000 -9999.000 -9999.000 -9999.000 -9999.000 -9999.000 -9999.000 -9999.000 -9999.000 -9999.000 -9999.000 -9999.000 -9999.000 -9999.000 -9999.000 -9999.000 -9999.000 -9999.000 -9999.000 -9999.000 -9999.000 -9999.000 -9999.000 -9999.000 -9999.000 -9999.000 -9999.000 -9999.000 -9999.000 -9999.000 -9999.000 -9999.000
-9999.000 -9999.000 2447.909 2418.052 2400.745 2381.774 2365.714 2351.084 2345.536 2332.431 2321.880 2333.582 2340.221 2336.809 2350.438 2338.454 2330.126 2315.023 2318.681 2301.823 2286.130 2270.326 2257.232 2244.888 2232.596 2214.875 2200.646 2184.957 2171.852 2158.053 2144.921 2133.058 2121.871 2112.816 2105.355 2100.955 2086.563 2075.569 2055.342 2040.336 2024.952 2011.944 1999.385 1969.239 1947.847 1942.352 1972.595 1952.485 1926.821 1896.660 1860.666 1842.103 1862.079 1843.857 1808.500 1794.544 1815.882 1809.148 1797.068 1819.565 1811.475 1793.809 1768.315 1747.186 1733.304 1725.512 1712.624 1703.478 1693.461 1682.144 1669.574 1656.470 1642.394 1630.007 1615.251 1602.636 1592.063 1578.972 1568.486 1559.246 1551.839 1547.771 1540.547 1534.327 1526.467 1519.307 1509.706 1499.685 1489.115 1479.119 1467.285 1455.574 1444.684 -9999.000 -9999.000 -9999.000 -9999.000 -9999.000 -9999.000 -9999.000 -9999.000 -9999.000 -9999.000 -9999.000 -9999.000 -9999.000 -9999.000 -9999.000 -9999.000 -9999.000 -9999.000 -9999.000 -9999.000 -9999.000 -9999.000 -9999.000 -9999.000 -9999.000 -9999.000 -9999.000 -9999.000 -9999.000 -9999.000 -9999.000 -9999.000 -9999.000 -9999.000 -9999.000 -9999.000 -9999.000
-9999.000 -9999.000 2438.619 2416.908 2401.375 2385.687 2366.004 2348.846 2328.616 2313.538 2299.558 2290.411 2291.182 2298.012 2320.106 2317.096 2317.457 2301.309 2300.073 2303.125 2290.950 2280.152 2267.248 2250.827 2237.802 2223.451 2208.006 2193.989 2180.251 2166.465 2150.605 2139.345 2127.985 2118.389 2107.267 2096.083 2090.040 2077.618 2060.139 2046.650 2032.081 2014.769 1995.822 1975.111 1940.978 1907.085 1936.473 1947.398 1923.800 1901.327 1860.375 1823.319 1829.993 1829.005 1804.607 1783.506 1776.702 1798.865 1779.772 1785.520 1785.595 1772.412 1748.087 1730.075 1721.411 1710.769 1698.183 1691.501 1684.244 1674.921 1663.818 1650.446 1638.254 1624.212 1612.580 1601.536 1589.247 1574.792 1561.288 1551.173 1542.189 1533.482 1525.733 1519.417 1513.062 1506.449 1501.315 1489.449 1478.378 1468.060 1457.418 1446.552 1439.839 1439.965 -9999.000 -9999.000 -9999.000 -9999.000 -9999.000 -9999.000 -9999.000 -9999.000 -9999.000 -9999.000 -9999.000 -9999.000 -9999.000 -9999.000 -9999.000 -9999.000 -9999.000 -9999.000 -9999.000 -9999.000 -9999.000 -9999.000 -9999.000 -9999.000 -9999.000 -9999.000 -9999.000 -9999.000 -9999.000 -9999.000 -9999.000 -9999.000 -9999.000 -9999.000 -9999.000 -9999.000
-9999.000 -9999.000 2447.311 2417.416 2403.408 2384.429 2366.178 2347.174 2331.492 2317.122 2302.013 2282.238 2276.695 2274.479 2287.682 2315.424 2311.598 2295.941 2275.591 2283.637 2292.408 2282.843 2273.604 2260.185 2246.673 2232.372 2218.293 2206.045 2192.696 2175.843 2159.459 2146.867 2133.243 2118.252 2105.351 2095.858 2080.521 2071.229 2057.659 2041.568 2033.014 2021.669 2006.337 1981.018 1943.834 1910.813 1887.428 1903.749 1899.088 1871.287 1839.009 1808.856 1797.558 1799.529 1779.236 1770.614 1762.548 1761.011 1756.110 1760.601 1756.104 1741.603 1726.098 1714.840 1706.339 1698.715 1691.184 1680.111 1672.157 1663.905 1655.106 1643.324 1630.330 1617.646 1606.561 1594.042 1581.288 1568.323 1555.456 1543.770 1533.733 1524.776 1515.069 1506.254 1499.568 1492.895 1489.451 1482.546 1470.936 1459.158 1449.055 1439.241 1433.534 1433.531 1430.525 -9999.000 -9999.000 -9999.000 -9999.000 -9999.000 -9999.000 -9999.000 -9999.000 -9999.000 -9999.000 -9999.000 -9999.000 -9999.000 -9999.000 -9999.000 -9999.000 -9999.000 -9999.000 -9999.000 -9999.000 -9999.000 -9999.000 -9999.000 -9999.000 -9999.000 -9999.000 -9999.000 -9999.000 -9999.000 -9999.000 -9999.000 -9999.000 -9999.000 -9999.000 -9999.000
-9999.000 -9999.000 -9999.000 2415.720 2398.361 2381.800 2364.879 2347.476 2332.675 2319.343 2302.399 2280.419 2260.977 2259.042 2270.558 2290.934 2291.041 2266.478 2257.796 2265.130 2271.871 2274.684 2270.825 2265.487 2256.360 2245.772 2232.606 2217.574 2203.851 2187.557 2171.690 2154.705 2136.876 2122.802 2107.536 2088.822 2069.619 2055.129 2034.186 2015.620 2002.254 1998.887 1994.111 1959.170 1937.108 1913.676 1897.175 1867.929 1836.288 1842.293 1836.876 1803.862 1787.311 1772.129 1764.774 1759.592 1749.069 1746.331 1741.324 1744.383 1741.392 1731.300 1717.723 1705.021 1695.043 1685.088 1679.817 1671.969 1662.398 1653.047 1644.854 1636.024 1623.508 1609.448 1598.392 1586.913 1576.424 1564.027 1552.045 1540.289 1528.859 1518.947 1509.935 1497.596 1489.172 1480.107 1475.456 1472.374 1463.150 1451.912 1440.696 1431.499 1424.018 1425.918 1422.704 1418.477 -9999.000 -9999.000 -9999.000 -9999.000 -9999.000 -9999.000 -9999.000 -9999.000 -9999.000 -9999.000 -9999.000 -9999.000 -9999.000 -9999.000 -9999.000 -9999.000 -9999.000 -9999.000 -9999.000 -9999.000 -9999.000 -9999.000 -9999.000 -9999.000 -9999.000 -9999.000 -9999.000 -9999.000 -9999.000 -9999.000 -9999.000 -9999.000 -9999.000 -9999.000
-9999.000 -9999.000 -9999.000 2417.667 2402.643 2384.927 2367.502 2351.503 2337.248 2321.708 2300.078 2283.151 2263.719 2242.224 2251.109 2266.144 2253.957 2256.529 2240.329 2247.596 2248.208 2244.257 2242.379 2245.124 2252.605 2248.593 2237.001 2218.491 2203.922 2196.460 2184.288 2164.567 2147.304 2131.627 2114.698 2098.092 2086.190 2073.624 2054.451 2038.494 2020.879 1995.343 1957.536 1951.343 1942.958 1916.277 1883.335 1857.017 1827.981 1815.509 1804.381 1796.005 1785.631 1768.468 1751.747 1741.956 1735.042 1730.146 1727.419 1722.374 1729.160 1721.027 1713.264 1702.552 1689.363 1680.579 1670.765 1660.364 1653.057 1642.818 1632.868 1625.314 1616.287 1604.423 1589.598 1578.560 1568.340 1558.726 1551.262 1536.023 1522.871 1514.030 1503.646 1493.492 1484.240 1474.804 1465.217 1459.736 1454.062 1443.403 1431.690 1423.737 1415.090 1419.974 1416.017 1411.181 1406.721 -9999.000 -9999.000 -9999.000 -9999.000 -9999.000 -9999.000 -9999.000 -9999.000 -9999.000 -9999.000 -9999.000 -9999.000 -9999.000 -9999.000 -9999.000 -9999.000 -9999.000 -9999.000 -9999.000 -9999.000 -9999.000 -9999.000 -9999.000 -9999.000 -9999.000 -9999.000 -9999.000 -9999.000 -9999.000 -9999.000 -9999.000 -9999.000 -9999.000
-9999.000 -9999.000 -9999.000 2420.281 2404.448 2386.645 2370.885 2354.819 2337.158 2317.211 2300.383 2285.401 2255.049 2226.913 2232.496 2269.944 2253.023 2230.830 2216.093 2208.715 2221.116 2223.093 2223.532 2231.519 2232.394 2236.941 2222.207 2209.721 2189.628 2164.304 2153.539 2160.671 2153.849 2142.166 2118.532 2091.974 2090.780 2083.572 2060.232 2043.629 2019.321 2001.096 1978.883 1965.216 1924.157 1895.838 1882.837 1855.917 1830.229 1815.655 1797.482 1782.904 1769.197 1754.303 1740.730 1727.717 1721.171 1714.864 1710.179 1703.672 1713.616 1710.708 1705.557 1697.372 1686.434 1675.024 1663.765 1650.521 1644.303 1634.156 1625.922 1614.371 1605.950 1595.092 1585.288 1569.961 1559.610 1549.084 1544.930 1537.031 1521.451 1505.907 1496.444 1487.859 1477.591 1468.509 1459.168 1449.771 1443.178 1435.758 1424.106 1415.435 1409.259 1411.355 1408.607 1403.662 1399.862 1401.189 1399.220 -9999.000 -9999.000 -9999.000 -9999.000 -9999.000 -9999.000 -9999.000 -9999.000 -9999.000 -9999.000 -9999.000 -9999.000 -9999.000 -9999.000 -9999.000 -9999.000 -9999.000 -9999.000 -9999.000 -9999.000 -9999.000 -9999.000 -9999.000 -9999.000 -9999.000 -9999.000 -9999.000 -9999.000 -9999.000 -9999.000 -9999.000
-9999.000 -9999.000 -9999.000 -9999.000 2403.476 2387.116 2374.687 2360.458 2338.792 2315.885 2298.978 2276.124 2245.372 2217.612 2211.850 2244.538 2248.781 2230.380 2211.065 2194.824 2183.993 2183.233 2185.426 2197.345 2223.904 2226.804 2210.775 2194.468 2178.836 2163.977 2147.145 2128.529 2114.461 2099.352 2086.693 2070.319 2066.343 2070.290 2062.699 2048.504 2030.146 2009.684 1982.838 1963.353 1912.601 1890.800 1869.422 1850.690 1838.626 1826.370 1806.870 1792.486 1780.114 1767.231 1753.551 1737.165 1717.384 1701.121 1693.975 1686.421 1682.281 1694.720 1693.667 1690.847 1682.733 1671.465 1662.303 1650.248 1642.035 1627.453 1615.219 1604.980 1595.054 1585.161 1575.706 1566.329 1551.779 1542.049 1530.185 1521.705 1512.956 1503.116 1489.892 1480.771 1472.192 1462.485 1453.843 1444.479 1434.438 1424.554 1417.623 1408.327 1401.922 1399.967 1402.090 1396.443 1391.815 1390.413 1390.001 1383.503 -9999.000 -9999.000 -9999.000 -9999.000 -9999.000 -9999.000 -9999.000 -9999.000 -9999.000 -9999.000 -9999.000 -9999.000 -9999.000 -9999.000 -9999.000 -9999.000 -9999.000 -9999.000 -9999.000 -9999.000 -9999.000 -9999.000 -9999.000 -9999.000 -9999.000 -9999.000 -9999.000 -9999.000 -9999.000 -9999.000
-9999.000 -9999.000 -9999.000 -9999.000 2360.807 2363.800 2371.621 2359.442 2327.707 2308.089 2287.183 2258.708 2235.009 2205.742 2194.302 2221.598 2226.938 2226.022 2208.233 2189.892 2172.783 2160.707 2158.531 2173.084 2188.780 2200.284 2212.206 2197.281 2189.120 2173.143 2155.736 2133.529 2118.145 2098.682 2081.987 2067.036 2049.714 2031.165 2035.211 2042.243 2014.597 1986.435 1951.557 1926.555 1906.627 1893.063 1873.144 1858.224 1847.488 1830.680 1817.137 1804.714 1790.950 1778.243 1764.242 1744.322 1726.344 1706.698 1686.878 1672.917 1667.265 1667.804 1677.789 1679.616 1673.003 1666.528 1657.455 1645.913 1633.036 1619.019 1608.082 1594.975 1588.126 1578.004 1568.826 1557.754 1547.226 1535.931 1523.524 1512.028 1501.010 1490.014 1482.073 1473.781 1465.656 1457.143 1447.780 1439.629 1429.848 1420.976 1412.920 1402.424 1395.209 1392.071 1394.934 1389.267 1384.413 1382.962 1380.857 1375.967 1365.130 -9999.000 -9999.000 -9999.000 -9999.000 -9999.000 -9999.000 -9999.000 -9999.000 -9999.000 -9999.000 -9999.000 -9999.000 -9999.000 -9999.000 -9999.000 -9999.000 -9999.000 -9999.000 -9999.000 -9999.000 -9999.000 -9999.000 -9999.000 -9999.000 -9999.000 -9999.000 -9999.000 -9999.000 -9999.000
-9999.000 -9999.000 -9999.000 -9999.000 2319.627 2315.684 2335.322 2353.681 2330.682 2314.230 2277.667 2253.853 2222.643 2201.478 2182.844 2181.191 2205.477 2219.637 2206.549 2190.468 2174.019 2157.177 2139.718 2132.720 2137.692 2158.093 2155.549 2133.717 2139.219 2144.154 2142.265 2136.499 2123.942 2106.929 2091.815 2073.094 2048.437 2034.659 2008.342 1996.783 1984.167 1957.990 1941.570 1927.785 1912.188 1899.871 1881.642 1864.317 1853.121 1842.408 1827.462 1815.883 1801.530 1785.904 1776.529 1755.304 1732.839 1714.048 1690.960 1668.081 1654.714 1646.919 1654.648 1661.719 1669.687 1658.276 1651.085 1638.436 1624.960 1611.158 1599.238 1589.762 1580.807 1571.908 1560.965 1553.355 1542.463 1533.081 1524.802 1511.562 1497.792 1485.531 1474.945 1464.108 1455.608 1449.069 1441.992 1433.853 1424.760 1415.651 1407.166 1398.465 1389.724 1382.972 1387.829 1381.613 1377.790 1375.817 1372.947 1366.995 1359.524 1345.066 -9999.000 -9999.000 -9999.000 -9999.000 -9999.000 -9999.000 -9999.000 -9999.000 -9999.000 -9999.000 -9999.000 -9999.000 -9999.000 -9999.000 -9999.000 -9999.000 -9999.000 -9999.000 -9999.000 -9999.000 -9999.000 -9999.000 -9999.000 -9999.000 -9999.000 -9999.000 -9999.000 -9999.000
-9999.000 -9999.000 -9999.000 -9999.000 -9999.000 2298.221 2284.162 2328.292 2329.639 2317.674 2264.846 2238.879 2219.174 2201.853 2182.301 2165.870 2191.102 2200.338 2212.491 2199.098 2187.551 2165.496 2141.080 2119.345 2104.177 2092.353 2114.569 2101.810 2110.586 2124.667 2137.901 2096.966 2110.664 2103.644 2085.200 2065.749 2051.464 2030.228 1998.729 1983.001 1959.832 1946.457 1936.318 1924.178 1911.882 1907.465 1895.537 1874.241 1861.333 1848.870 1836.987 1824.714 1812.578 1797.557 1782.006 1762.723 1741.023 1712.301 1692.907 1675.625 1651.735 1635.275 1628.032 1642.515 1649.715 1655.883 1646.940 1633.862 1618.739 1603.834 1591.686 1580.427 1572.364 1563.037 1553.962 1544.870 1536.047 1527.700 1518.987 1511.285 1503.577 1490.866 1477.071 1463.760 1449.925 1440.567 1433.727 1427.650 1420.879 1411.528 1402.582 1395.274 1382.718 1375.741 1381.938 1375.539 1371.781 1369.440 1368.298 1359.282 1352.917 1339.939 1326.243 -9999.000 -9999.000 -9999.000 -9999.000 -9999.000 -9999.000 -9999.000 -9999.000 -9999.000 -9999.000 -9999.000 -9999.000 -9999.000 -9999.000 -9999.000 -9999.000 -9999.000 -9999.000 -9999.000 -9999.000 -9999.000 -9999.000 -9999.000 -9999.000 -9999.000 -9999.000 -9999.000
-9999.000 -9999.000 -9999.000 -9999.000 -9999.000 2279.344 2272.455 2256.069 2257.635 2277.214 2248.500 2235.504 2219.423 2203.416 2178.156 2153.720 2167.607 2180.470 2207.410 2206.349 2185.494 2165.618 2140.881 2123.783 2107.648 2090.288 2071.021 2057.955 2085.570 2074.623 2091.834 2063.293 2089.357 2076.180 2062.939 2029.412 2021.314 2006.871 1980.222 1973.331 1960.517 1947.042 1935.776 1923.561 1912.871 1907.219 1902.323 1884.560 1870.861 1855.877 1842.130 1829.315 1816.231 1801.191 1783.978 1766.253 1737.424 1713.049 1690.229 1668.731 1648.321 1631.396 1613.386 1615.483 1624.745 1630.423 1639.246 1628.251 1612.630 1595.731 1581.338 1570.536 1559.533 1551.836 1544.136 1534.855 1527.396 1519.506 1512.166 1504.635 1497.198 1490.907 1480.812 1467.920 1454.913 1439.455 1426.107 1417.567 1413.392 1407.085 1397.944 1390.257 1378.701 1369.265 1376.162 1370.262 1365.184 1361.218 1360.869 1354.199 1345.474 1334.823 1323.314 1312.049 -9999.000 -9999.000 -9999.000 -9999.000 -9999.000 -9999.000 -9999.000 -9999.000 -9999.000 -9999.000 -9999.000 -9999.000 -9999.000 -9999.000 -9999.000 -9999.000 -9999.000 -9999.000 -9999.000 -9999.000 -9999.000 -9999.000 -9999.000 -9999.000 -9999.000 -9999.000
-9999.000 -9999.000 -9999.000 -9999.000 -9999.000 2282.555 2265.494 2245.424 2231.393 2221.128 2217.199 2227.655 2207.813 2207.099 2182.587 2144.811 2153.198 2169.237 2184.010 2182.320 2173.781 2156.779 2141.616 2126.373 2114.873 2094.377 2079.611 2061.321 2035.469 2025.384 2049.110 2035.194 2053.188 2042.174 2027.663 2004.700 1994.399 1981.755 1969.177 1962.306 1954.766 1944.117 1939.179 1927.240 1913.022 1904.810 1901.058 1883.402 1864.973 1848.270 1837.423 1817.074 1809.980 1796.403 1781.059 1760.408 1741.517 1726.938 1703.575 1678.374 1647.820 1626.918 1612.001 1593.805 1593.155 1601.222 1613.776 1615.336 1600.524 1587.942 1574.057 1556.686 1546.744 1538.722 1535.192 1529.652 1518.836 1510.545 1504.210 1498.127 1488.658 1480.235 1473.513 1463.461 1450.894 1441.955 1429.337 1414.869 1404.854 1399.180 1392.793 1386.067 1376.428 1363.822 1368.517 1362.787 1358.206 1357.731 1350.935 1347.596 1340.003 1331.809 1322.147 1311.773 1301.502 -9999.000 -9999.000 -9999.000 -9999.000 -9999.000 -9999.000 -9999.000 -9999.000 -9999.000 -9999.000 -9999.000 -9999.000 -9999.000 -9999.000 -9999.000 -9999.000 -9999.000 -9999.000 -9999.000 -9999.000 -9999.000 -9999.000 -9999.000 -9999.000 -9999.000
-9999.000 -9999.000 -9999.000 -9999.000 -9999.000 -9999.000 2269.439 2250.859 2232.626 2215.332 2198.160 2183.260 2162.917 2149.275 2175.042 2141.329 2136.860 2140.496 2159.983 2146.063 2146.528 2136.616 2130.659 2122.091 2112.952 2099.801 2078.756 2060.643 2043.841 2029.418 2003.776 1998.061 2014.229 2016.433 2015.198 1992.227 1985.442 1975.031 1961.027 1952.628 1945.600 1936.406 1935.269 1932.330 1916.033 1903.161 1892.755 1881.689 1863.436 1846.664 1829.817 1810.437 1792.371 1779.019 1769.597 1759.727 1736.375 1718.470 1694.311 1664.159 1645.116 1627.462 1611.238 1596.143 1578.712 1568.661 1586.467 1591.617 1585.227 1573.436 1558.649 1545.771 1533.149 1524.963 1520.897 1516.007 1506.939 1498.434 1498.275 1492.613 1484.432 1472.482 1462.397 1455.406 1445.260 1432.871 1424.798 1416.050 1403.270 1391.836 1385.295 1381.028 1372.596 1356.807 1361.829 1355.903 1352.160 1350.967 1348.870 1341.419 1334.763 1328.379 1321.012 1311.883 1302.117 1292.801 1288.942 -9999.000 -9999.000 -9999.000 -9999.000 -9999.000 -9999.000 -9999.000 -9999.000 -9999.000 -9999.000 -9999.000 -9999.000 -9999.000 -9999.000 -9999.000 -9999.000 -9999.000 -9999.000 -9999.000 -9999.000 -9999.000 -9999.000 -9999.000
-9999.000 -9999.000 -9999.000 -9999.000 -9999.000 -9999.000 2275.841 2259.626 2248.162 2228.751 2209.190 2187.409 2167.769 2146.027 2130.180 2125.550 2114.036 2123.529 2128.566 2131.906 2122.845 2110.963 2100.915 2102.064 2091.050 2075.047 2075.430 2060.782 2044.717 2020.951 2000.941 1985.505 1978.717 1992.489 1989.720 1979.696 1972.888 1962.740 1950.095 1944.190 1931.520 1928.387 1928.468 1923.280 1913.839 1902.596 1892.189 1879.316 1863.377 1846.646 1831.071 1812.761 1793.969 1777.216 1758.740 1734.678 1729.732 1709.541 1686.551 1662.938 1644.917 1628.224 1613.964 1596.061 1581.097 1562.232 1554.102 1555.156 1569.917 1559.263 1546.039 1533.660 1522.414 1512.176 1505.251 1501.098 1494.197 1484.700 1486.064 1485.561 1479.051 1467.710 1455.937 1443.638 1436.079 1425.441 1415.892 1408.396 1401.018 1391.267 1379.069 1372.403 1365.894 1353.877 1352.995 1350.774 1343.674 1346.821 1344.019 1339.542 1333.316 1325.972 1316.865 1307.918 1302.451 1292.035 1284.530 1286.387 -9999.000 -9999.000 -9999.000 -9999.000 -9999.000 -9999.000 -9999.000 -9999.000 -9999.000 -9999.000 -9999.000 -9999.000 -9999.000 -9999.000 -9999.000 -9999.000 -9999.000 -9999.000 -9999.000 -9999.000 -9999.000 -9999.000
-9999.000 -9999.000 -9999.000 -9999.000 -9999.000 -9999.000 -9999.000 2266.984 2254.341 2235.915 2216.972 2194.376 2161.050 2136.807 2123.616 2111.995 2099.794 2106.940 2105.704 2120.011 2107.029 2107.742 2091.439 2079.210 2083.257 2063.668 2051.090 2038.389 2039.111 2010.266 2001.891 1981.085 1964.817 1961.890 1963.208 1962.855 1957.199 1951.108 1939.914 1930.211 1923.905 1913.968 1912.030 1907.446 1900.573 1891.640 1885.108 1874.447 1861.470 1846.117 1830.818 1814.735 1800.341 1782.954 1764.855 1740.843 1717.778 1699.936 1680.258 1660.407 1642.751 1626.310 1611.280 1596.134 1582.230 1564.646 1546.444 1539.925 1547.063 1548.570 1533.639 1522.490 1511.916 1501.539 1492.557 1484.663 1479.652 1470.542 1471.898 1471.125 1467.937 1459.980 1449.959 1439.401 1425.714 1417.077 1407.576 1400.906 1394.322 1386.936 1379.891 1367.720 1360.172 1353.385 1344.474 1340.910 1339.021 1346.273 1335.097 1335.788 1328.175 1321.508 1315.150 1306.401 1298.480 1291.881 1283.268 1279.714 1278.561 -9999.000 -9999.000 -9999.000 -9999.000 -9999.000 -9999.000 -9999.000 -9999.000 -9999.000 -9999.000 -9999.000 -9999.000 -9999.000 -9999.000 -9999.000 -9999.000 -9999.000 -9999.000 -9999.000 -9999.000 -9999.000
-9999.000 -9999.000 -9999.000 -9999.000 -9999.000 -9999.000 -9999.000 -9999.000 2210.496 2220.080 2195.362 2174.354 2145.768 2127.196 2116.231 2101.844 2090.523 2086.914 2089.163 2087.779 2085.586 2085.162 2090.910 2068.017 2055.715 2066.455 2047.193 2022.773 2013.968 1995.931 1985.346 1975.829 1961.535 1945.280 1945.200 1946.944 1943.416 1939.582 1931.144 1921.044 1910.057 1903.152 1893.977 1890.898 1886.689 1881.536 1874.224 1863.669 1851.302 1838.715 1825.043 1812.537 1800.551 1787.733 1771.324 1748.100 1724.855 1705.794 1684.566 1663.972 1645.796 1630.575 1617.618 1601.345 1584.059 1562.986 1546.166 1530.749 1532.326 1530.927 1520.356 1511.868 1502.062 1492.186 1482.711 1475.021 1466.221 1458.734 1456.104 1457.632 1453.619 1450.112 1441.270 1431.031 1420.467 1409.101 1399.858 1393.084 1387.022 1380.332 1374.971 1367.476 1354.687 1349.303 1338.961 1336.828 1334.638 1341.316 1329.023 1327.449 1324.740 1316.097 1308.451 1301.605 1293.697 1288.361 1283.243 1278.054 1273.928 1273.328 -9999.000 -9999.000 -9999.000 -9999.000 -9999.000 -9999.000 -9999.000 -9999.000 -9999.000 -9999.000 -9999.000 -9999.000 -9999.000 -9999.000 -9999.000 -9999.000 -9999.000 -9999.000 -9999.000 -9999.000
-9999.000 -9999.000 -9999.000 -9999.000 -9999.000 -9999.000 -9999.000 -9999.000 -9999.000 2186.257 2162.025 2141.980 2127.903 2119.162 2107.361 2094.934 2076.288 2065.781 2072.338 2065.945 2071.199 2062.388 2069.418 2063.981 2040.791 2035.770 2012.918 2000.580 1989.163 1984.378 1971.844 1962.236 1955.836 1944.400 1921.206 1931.082 1928.409 1927.412 1922.061 1911.268 1898.146 1886.382 1885.945 1865.849 1861.735 1863.166 1861.196 1851.125 1839.652 1829.242 1817.906 1808.536 1796.611 1780.230 1763.385 1746.727 1724.945 1705.244 1680.102 1662.168 1649.652 1634.706 1617.677 1600.562 1590.151 1561.816 1540.498 1525.042 1519.411 1522.524 1512.562 1503.258 1494.296 1484.256 1474.362 1464.406 1458.117 1448.950 1442.726 1442.335 1440.073 1437.435 1432.585 1423.138 1411.905 1401.091 1392.162 1385.437 1380.355 1373.499 1367.136 1357.782 1348.824 1341.025 1337.317 1330.781 1329.253 1333.911 1326.222 1319.297 1316.914 1311.200 1302.361 1295.406 1288.672 1280.497 1280.834 1279.306 1271.869 1270.344 1273.028 -9999.000 -9999.000 -9999.000 -9999.000 -9999.000 -9999.000 -9999.000 -9999.000 -9999.000 -9999.000 -9999.000 -9999.000 -9999.000 -9999.000 -9999.000 -9999.000 -9999.000 -9999.000 -9999.000
-9999.000 -9999.000 -9999.000 -9999.000 -9999.000 -9999.000 -9999.000 -9999.000 -9999.000 -9999.000 2175.941 2151.698 2131.618 2116.388 2095.861 2082.045 2071.864 2058.296 2050.258 2051.130 2046.170 2046.824 2053.524 2048.523 2026.769 2015.471 2004.366 1990.936 1976.626 1972.766 1962.446 1948.046 1945.970 1936.283 1918.962 1908.520 1912.896 1914.514 1910.704 1905.328 1891.872 1878.738 1867.628 1860.178 1842.615 1826.142 1835.696 1837.477 1830.004 1819.678 1810.144 1800.133 1789.187 1769.263 1754.012 1737.655 1719.371 1691.980 1669.056 1651.802 1639.594 1629.472 1612.559 1593.643 1575.854 1555.906 1539.178 1523.357 1511.500 1509.668 1506.408 1497.575 1488.432 1479.213 1468.931 1458.142 1449.216 1441.255 1432.468 1427.981 1425.694 1423.469 1420.310 1412.371 1402.596 1393.564 1384.951 1376.852 1370.459 1364.638 1356.587 1347.760 1340.914 1334.408 1338.227 1326.683 1323.892 1322.904 1325.264 1313.661 1311.042 1307.817 1300.661 1290.505 1282.684 1277.955 1276.622 1275.329 1274.966 1275.428 1269.232 1267.618 -9999.000 -9999.000 -9999.000 -9999.000 -9999.000 -9999.000 -9999.000 -9999.000 -9999.000 -9999.000 -9999.000 -9999.000 -9999.000 -9999.000 -9999.000 -9999.000 -9999.000 -9999.000
-9999.000 -9999.000 -9999.000 -9999.000 -9999.000 -9999.000 -9999.000 -9999.000 -9999.000 -9999.000 -9999.000 2142.473 2121.066 2118.109 2087.011 2076.516 2062.658 2055.136 2036.818 2033.508 2028.224 2030.877 2035.695 2033.405 2023.675 2008.605 1992.965 1980.716 1969.461 1950.950 1955.802 1937.060 1924.217 1929.948 1916.080 1894.509 1896.442 1900.521 1896.883 1891.132 1883.207 1872.630 1861.969 1845.993 1831.430 1814.426 1805.814 1822.733 1815.848 1808.411 1800.424 1789.599 1776.511 1761.446 1745.050 1723.873 1701.348 1679.206 1660.282 1641.087 1624.675 1614.438 1602.393 1586.445 1568.727 1549.390 1534.134 1519.253 1505.420 1498.084 1499.875 1491.490 1482.706 1475.721 1470.814 1460.274 1447.927 1434.534 1425.271 1415.518 1411.837 1409.543 1404.606 1396.808 1392.008 1383.040 1374.825 1368.296 1361.589 1354.789 1349.080 1344.246 1338.130 1329.818 1327.436 1322.847 1319.233 1316.980 1324.572 1310.731 1303.832 1304.305 1297.965 1288.603 1279.277 1272.339 1270.356 1268.133 1267.060 1266.871 1267.794 1265.390 1264.665 1263.416 -9999.000 -9999.000 -9999.000 -9999.000 -9999.000 -9999.000 -9999.000 -9999.000 -9999.000 -9999.000 -9999.000 -9999.000 -9999.000 -9999.000 -9999.000 -9999.000
-9999.000 -9999.000 -9999.000 -9999.000 -9999.000 -9999.000 -9999.000 -9999.000 -9999.000 -9999.000 -9999.000 -9999.000 2120.406 2093.623 2078.845 2065.018 2053.969 2045.837 2037.166 2016.955 2007.299 2014.994 2020.164 2017.363 2014.129 2006.692 1992.100 1976.989 1959.663 1942.199 1930.006 1926.844 1907.742 1915.758 1909.340 1890.881 1877.822 1881.815 1881.381 1874.565 1870.625 1862.391 1853.685 1844.710 1827.825 1807.675 1789.429 1806.517 1795.662 1784.029 1786.611 1775.731 1764.488 1751.059 1729.027 1704.335 1688.408 1672.985 1653.037 1636.349 1617.304 1598.736 1589.946 1574.766 1558.547 1544.417 1528.525 1511.323 1502.613 1490.126 1488.297 1484.027 1476.610 1468.418 1463.550 1461.865 1448.950 1434.956 1420.783 1409.217 1401.824 1396.026 1390.049 1381.966 1377.592 1375.283 1367.961 1358.099 1349.968 1347.713 1344.241 1339.635 1331.914 1320.958 1318.762 1323.944 1314.266 1311.820 1314.200 1310.710 1301.055 1298.018 1292.481 1283.994 1275.311 1269.823 1267.714 1265.959 1264.587 1263.427 1264.639 1263.056 1261.463 1260.869 1259.085 -9999.000 -9999.000 -9999.000 -9999.000 -9999.000 -9999.000 -9999.000 -9999.000 -9999.000 -9999.000 -9999.000 -9999.000 -9999.000 -9999.000 -9999.000
-9999.000 -9999.000 -9999.000 -9999.000 -9999.000 -9999.000 -9999.000 -9999.000 -9999.000 -9999.000 -9999.000 -9999.000 -9999.000 -9999.000 2070.045 2057.675 2045.909 2034.490 2030.663 2018.186 2007.546 1996.075 2004.862 2001.520 2002.333 1996.679 1989.146 1976.716 1955.236 1937.721 1917.010 1908.672 1890.916 1871.591 1873.691 1887.233 1868.484 1861.972 1854.866 1852.670 1854.353 1850.524 1840.766 1826.782 1812.075 1796.924 1773.591 1776.337 1759.364 1768.314 1770.003 1757.520 1743.092 1719.611 1703.309 1686.643 1672.028 1657.230 1638.711 1619.153 1601.186 1589.319 1574.767 1567.567 1555.139 1539.337 1517.036 1499.276 1493.454 1486.474 1476.674 1477.804 1469.455 1462.107 1455.218 1454.554 1448.802 1435.202 1420.600 1406.430 1394.685 1385.987 1377.203 1372.052 1365.182 1360.300 1354.311 1346.708 1340.406 1338.324 1335.009 1329.970 1321.293 1312.663 1313.111 1318.489 1309.505 1307.061 1304.843 1311.031 1300.005 1294.778 1290.271 1282.722 1276.136 1271.869 1268.614 1265.826 1262.902 1261.513 1261.809 1262.350 1260.161 1257.559 1256.429 1254.653 -9999.000 -9999.000 -9999.000 -9999.000 -9999.000 -9999.000 -9999.000 -9999.000 -9999.000 -9999.000 -9999.000 -9999.000 -9999.000 -9999.000
-9999.000 -9999.000 -9999.000 -9999.000 -9999.000 -9999.000 -9999.000 -9999.000 -9999.000 -9999.000 -9999.000 -9999.000 -9999.000 -9999.000 -9999.000 2048.728 2037.523 2025.872 2014.601 2010.178 1999.466 1984.603 1978.067 1983.023 1982.203 1980.635 1976.452 1967.136 1956.932 1935.075 1918.384 1900.774 1879.622 1855.476 1842.795 1837.161 1856.856 1849.153 1832.911 1830.389 1835.365 1834.795 1821.638 1813.320 1798.748 1783.535 1764.915 1746.450 1731.002 1745.159 1729.778 1705.915 1706.895 1695.697 1680.131 1661.293 1649.271 1632.832 1622.117 1606.794 1589.407 1574.581 1564.699 1554.987 1547.039 1531.188 1507.063 1492.482 1481.221 1478.729 1470.867 1464.722 1461.672 1454.594 1448.170 1442.840 1440.859 1433.438 1421.712 1407.750 1393.207 1381.191 1369.713 1360.979 1353.888 1346.406 1340.259 1334.569 1332.710 1328.392 1320.396 1318.029 1310.708 1306.572 1307.390 1308.829 1308.849 1301.892 1299.359 1306.739 1296.614 1291.878 1287.379 1282.705 1278.132 1273.887 1270.189 1266.455 1262.332 1260.017 1259.786 1259.684 1258.991 1256.409 1253.882 1252.245 1250.914 -9999.000 -9999.000 -9999.000 -9999.000 -9999.000 -9999.000 -9999.000 -9999.000 -9999.000 -9999.000 -9999.000 -9999.000 -9999.000
-9999.000 -9999.000 -9999.000 -9999.000 -9999.000 -9999.000 -9999.000 -9999.000 -9999.000 -9999.000 -9999.000 -9999.000 -9999.000 -9999.000 -9999.000 -9999.000 2035.971 2020.726 2006.913 1995.366 1986.589 1976.077 1955.439 1955.824 1958.995 1962.482 1963.176 1947.213 1946.189 1928.451 1912.776 1894.570 1878.298 1857.611 1832.435 1813.345 1827.018 1827.697 1830.275 1811.141 1817.480 1814.864 1807.493 1793.503 1788.661 1769.487 1750.534 1735.541 1714.363 1713.995 1697.146 1665.876 1668.878 1665.285 1658.463 1638.671 1627.543 1616.769 1606.838 1591.906 1577.822 1563.640 1548.134 1538.927 1533.489 1511.628 1496.237 1481.444 1471.045 1468.409 1466.054 1456.550 1454.516 1447.146 1440.917 1435.277 1431.206 1424.744 1417.233 1408.772 1397.526 1382.928 1368.144 1355.677 1346.552 1338.040 1328.765 1324.426 1322.098 1315.145 1306.859 1301.938 1299.628 1300.473 1300.976 1301.290 1309.882 1297.309 1294.391 1296.762 1295.158 1288.566 1284.929 1282.150 1277.426 1273.452 1269.893 1266.272 1262.352 1258.818 1257.080 1257.048 1255.077 1253.481 1251.656 1250.097 1248.633 1247.763 -9999.000 -9999.000 -9999.000 -9999.000 -9999.000 -9999.000 -9999.000 -9999.000 -9999.000 -9999.000 -9999.000 -9999.000
-9999.000 -9999.000 -9999.000 -9999.000 -9999.000 -9999.000 -9999.000 -9999.000 -9999.000 -9999.000 -9999.000 -9999.000 -9999.000 -9999.000 -9999.000 -9999.000 -9999.000 2024.248 2007.559 1990.764 1974.191 1963.113 1949.792 1934.800 1934.167 1937.693 1947.028 1925.990 1926.225 1918.972 1903.180 1887.879 1872.647 1851.223 1827.746 1805.185 1800.347 1800.093 1804.022 1806.622 1788.816 1791.964 1795.645 1776.240 1754.592 1748.963 1734.786 1715.752 1698.398 1681.948 1666.812 1645.273 1635.861 1637.046 1620.899 1616.161 1604.478 1591.325 1584.712 1572.903 1565.443 1555.283 1540.458 1524.307 1509.435 1497.434 1487.519 1471.926 1460.249 1459.979 1457.114 1452.810 1441.696 1440.476 1433.509 1427.392 1422.371 1417.101 1409.511 1400.591 1392.409 1381.446 1369.078 1354.221 1341.153 1332.368 1323.235 1315.183 1307.935 1301.237 1295.473 1292.921 1293.356 1295.548 1296.922 1295.032 1302.745 1296.210 1290.240 1288.565 1295.811 1284.384 1281.612 1278.839 1275.478 1271.579 1267.667 1264.370 1260.832 1258.286 1255.899 1254.229 1252.217 1250.779 1248.836 1247.222 1246.018 1245.484 1244.990 -9999.000 -9999.000 -9999.000 -9999.000 -9999.000 -9999.000 -9999.000 -9999.000 -9999.000 -9999.000 -9999.000
-9999.000 -9999.000 -9999.000 -9999.000 -9999.000 -9999.000 -9999.000 -9999.000 -9999.000 -9999.000 -9999.000 -9999.000 -9999.000 -9999.000 -9999.000 -9999.000 -9999.000 -9999.000 2005.488 1991.814 1975.818 1961.797 1947.564 1933.568 1916.892 1915.422 1909.219 1908.847 1896.505 1897.456 1892.964 1876.280 1856.764 1837.017 1817.949 1797.334 1775.340 1774.684 1772.861 1776.591 1778.724 1749.166 1769.297 1760.999 1737.698 1721.261 1706.791 1701.153 1686.483 1663.516 1650.186 1631.380 1617.914 1610.525 1600.245 1593.292 1581.016 1571.099 1567.627 1558.187 1551.951 1544.395 1535.994 1523.153 1507.682 1493.547 1479.392 1467.467 1453.400 1448.790 1448.386 1444.746 1437.498 1431.515 1426.798 1419.504 1414.617 1406.669 1399.785 1391.777 1382.520 1371.986 1361.184 1350.793 1336.852 1325.877 1318.138 1310.527 1302.190 1294.469 1289.697 1288.639 1290.075 1290.660 1292.415 1290.708 1292.934 1299.357 1286.485 1284.582 1291.702 1281.573 1278.832 1276.220 1273.153 1269.658 1266.381 1262.788 1259.323 1256.591 1254.246 1252.957 1251.385 1249.224 1247.146 1245.147 1243.950 1243.232 1243.148 1241.452 1239.513 -9999.000 -9999.000 -9999.000 -9999.000 -9999.000 -9999.000 -9999.000 -9999.000 -9999.000
-9999.000 -9999.000 -9999.000 -9999.000 -9999.000 -9999.000 -9999.000 -9999.000 -9999.000 -9999.000 -9999.000 -9999.000 -9999.000 -9999.000 -9999.000 -9999.000 -9999.000 -9999.000 -9999.000 1991.637 1979.341 1967.046 1951.970 1933.570 1915.918 1899.962 1893.207 1885.200 1877.499 1872.755 1878.738 1869.181 1853.811 1830.443 1808.710 1788.447 1765.692 1747.705 1747.901 1744.769 1741.970 1741.289 1724.736 1723.153 1723.002 1704.228 1686.773 1667.971 1657.048 1642.250 1633.529 1617.138 1601.993 1596.716 1586.869 1574.706 1564.291 1554.645 1547.695 1540.716 1532.233 1528.883 1522.557 1515.447 1505.885 1491.165 1475.081 1460.193 1444.749 1438.238 1438.799 1436.251 1431.230 1422.915 1420.530 1412.580 1405.601 1398.313 1388.918 1380.508 1371.388 1361.652 1350.311 1339.469 1331.381 1322.405 1313.583 1305.909 1298.518 1290.945 1286.315 1285.854 1286.893 1287.512 1286.329 1286.549 1286.979 1290.292 1285.839 1280.233 1282.524 1281.183 1275.538 1271.988 1270.532 1268.145 1265.279 1261.970 1258.364 1255.691 1253.305 1251.208 1249.434 1248.013 1245.775 1244.250 1242.924 1241.484 1240.025 1239.740 1238.306 1237.868 -9999.000 -9999.000 -9999.000 -9999.000 -9999.000 -9999.000 -9999.000 -9999.000
-9999.000 -9999.000 -9999.000 -9999.000 -9999.000 -9999.000 -9999.000 -9999.000 -9999.000 -9999.000 -9999.000 -9999.000 -9999.000 -9999.000 -9999.000 -9999.000 -9999.000 -9999.000 -9999.000 -9999.000 1976.463 1967.970 1949.337 1934.133 1918.234 1904.698 1891.788 1875.400 1861.838 1853.468 1855.289 1854.076 1838.959 1820.317 1801.944 1782.603 1761.607 1741.478 1722.609 1717.925 1709.051 1721.303 1721.808 1707.061 1698.799 1684.417 1671.989 1658.864 1649.829 1634.485 1616.587 1601.070 1591.698 1581.022 1572.888 1563.002 1551.822 1544.388 1534.180 1526.498 1522.445 1511.209 1504.628 1498.182 1494.881 1482.737 1467.144 1453.346 1439.306 1429.721 1429.517 1427.542 1422.314 1419.507 1410.798 1407.812 1399.074 1391.525 1382.839 1373.106 1362.875 1351.576 1340.753 1332.788 1324.836 1317.170 1310.045 1303.267 1295.889 1288.484 1283.585 1283.507 1283.214 1282.760 1282.437 1282.586 1282.768 1282.527 1288.178 1276.424 1274.894 1282.015 1271.822 1268.812 1267.187 1264.395 1262.571 1259.734 1257.293 1254.548 1252.719 1249.852 1247.985 1246.542 1244.552 1242.555 1241.364 1239.818 1239.243 1238.257 1238.172 1236.833 1236.830 -9999.000 -9999.000 -9999.000 -9999.000 -9999.000 -9999.000 -9999.000
-9999.000 -9999.000 -9999.000 -9999.000 -9999.000 -9999.000 -9999.000 -9999.000 -9999.000 -9999.000 -9999.000 -9999.000 -9999.000 -9999.000 -9999.000 -9999.000 -9999.000 -9999.000 -9999.000 -9999.000 -9999.000 -9999.000 1926.276 1925.555 1915.833 1905.800 1897.549 1882.172 1871.012 1854.792 1833.228 1841.661 1831.672 1818.364 1802.212 1785.842 1764.899 1747.578 1729.091 1706.804 1691.410 1686.032 1688.317 1699.513 1683.060 1667.540 1649.444 1648.080 1643.532 1630.861 1610.567 1591.234 1578.644 1568.322 1560.839 1550.670 1540.237 1526.870 1525.152 1514.973 1510.073 1501.829 1490.356 1483.382 1481.160 1473.138 1461.421 1447.589 1434.339 1421.554 1419.909 1418.342 1413.412 1409.766 1406.693 1399.268 1392.468 1385.559 1377.920 1369.733 1360.559 1351.150 1341.723 1331.762 1322.107 1314.223 1307.345 1301.039 1294.430 1287.862 1282.644 1281.568 1280.010 1279.908 1280.039 1279.488 1278.347 1276.948 1278.491 1279.326 1271.342 1278.087 1269.827 1265.656 1263.779 1261.336 1258.606 1256.988 1254.500 1253.328 1249.979 1249.036 1246.896 1244.920 1243.608 1241.757 1239.992 1239.090 1238.639 1237.694 1237.465 1236.951 1236.767 1236.108 -9999.000 -9999.000 -9999.000 -9999.000 -9999.000 -9999.000
-9999.000 -9999.000 -9999.000 -9999.000 -9999.000 -9999.000 -9999.000 -9999.000 -9999.000 -9999.000 -9999.000 -9999.000 -9999.000 -9999.000 -9999.000 -9999.000 -9999.000 -9999.000 -9999.000 -9999.000 -9999.000 -9999.000 -9999.000 1907.202 1904.400 1899.302 1889.426 1874.579 1871.937 1856.420 1834.537 1814.366 1816.297 1809.149 1796.811 1780.819 1765.495 1754.199 1731.693 1708.702 1688.682 1668.595 1652.243 1668.202 1680.067 1663.881 1645.650 1630.647 1626.851 1616.223 1602.548 1579.988 1564.152 1554.203 1548.541 1540.227 1528.335 1517.426 1506.853 1495.824 1490.256 1485.765 1476.904 1465.724 1466.064 1464.640 1453.103 1440.872 1428.386 1415.411 1410.564 1408.836 1403.758 1401.507 1397.818 1393.550 1387.541 1379.865 1372.860 1364.274 1355.629 1347.562 1338.955 1330.770 1323.803 1315.660 1307.147 1301.719 1292.828 1287.393 1283.708 1281.162 1277.265 1275.980 1275.180 1274.884 1274.339 1272.731 1272.104 1273.391 1268.961 1269.238 1267.603 1262.634 1260.976 1258.707 1256.230 1253.977 1252.232 1251.003 1249.619 1247.249 1245.101 1243.816 1242.631 1240.645 1239.445 1238.922 1238.211 1237.466 1237.358 1236.637 1236.468 1236.021 1236.109 -9999.000 -9999.000 -9999.000 -9999.000 -9999.000
-9999.000 -9999.000 -9999.000 -9999.000 -9999.000 -9999.000 -9999.000 -9999.000 -9999.000 -9999.000 -9999.000 -9999.000 -9999.000 -9999.000 -9999.000 -9999.000 -9999.000 -9999.000 -9999.000 -9999.000 -9999.000 -9999.000 -9999.000 -9999.000 1892.914 1881.221 1869.195 1867.423 1853.884 1843.231 1829.227 1806.037 1781.855 1779.826 1771.058 1754.681 1748.739 1737.413 1731.885 1712.284 1693.126 1676.573 1651.842 1630.463 1646.631 1658.095 1642.842 1629.958 1612.255 1599.520 1586.913 1570.757 1552.431 1540.836 1536.152 1530.273 1520.034 1507.939 1497.096 1487.203 1474.185 1466.839 1459.820 1454.121 1448.074 1453.439 1445.891 1433.925 1423.238 1410.151 1401.990 1399.688 1394.382 1392.025 1390.431 1385.467 1380.340 1374.573 1367.190 1360.917 1352.130 1343.787 1335.891 1327.399 1320.316 1311.383 1304.324 1298.026 1292.773 1288.486 1283.613 1279.491 1274.560 1273.002 1272.056 1271.375 1270.331 1269.119 1267.797 1266.954 1271.448 1262.447 1265.560 1259.716 1258.368 1256.412 1254.108 1251.541 1250.162 1247.622 1247.275 1245.700 1243.768 1242.389 1241.165 1240.021 1239.253 1238.669 1237.646 1237.329 1236.436 1236.606 1236.180 1235.977 1235.643 1235.482 -9999.000 -9999.000 -9999.000 -9999.000
-9999.000 -9999.000 -9999.000 -9999.000 -9999.000 -9999.000 -9999.000 -9999.000 -9999.000 -9999.000 -9999.000 -9999.000 -9999.000 -9999.000 -9999.000 -9999.000 -9999.000 -9999.000 -9999.000 -9999.000 -9999.000 -9999.000 -9999.000 -9999.000 -9999.000 1871.922 1860.195 1849.270 1841.118 1835.181 1821.915 1807.621 1791.580 1776.455 1764.257 1750.750 1735.081 1716.127 1705.697 1699.649 1696.991 1676.770 1652.574 1635.031 1609.147 1623.665 1633.198 1618.420 1603.470 1572.942 1562.886 1548.359 1533.009 1526.730 1519.868 1517.407 1512.762 1500.624 1489.044 1477.907 1468.093 1456.132 1448.414 1441.204 1432.437 1438.509 1436.802 1427.847 1415.663 1407.056 1394.944 1391.246 1385.844 1382.705 1381.276 1377.758 1372.721 1368.521 1361.792 1355.736 1349.144 1339.570 1332.241 1326.352 1316.946 1309.050 1301.476 1295.083 1290.047 1284.362 1280.018 1276.904 1272.637 1269.948 1268.504 1267.856 1267.418 1266.109 1264.643 1262.898 1263.124 1259.856 1264.093 1257.261 1255.518 1253.916 1252.323 1250.605 1248.126 1245.769 1244.452 1243.402 1242.270 1241.339 1240.321 1239.275 1238.726 1237.995 1236.752 1236.981 1236.440 1236.098 1236.212 1241.395 1242.619 1236.677 1234.321 1234.052 -9999.000 -9999.000
-9999.000 -9999.000 -9999.000 -9999.000 -9999.000 -9999.000 -9999.000 -9999.000 -9999.000 -9999.000 -9999.000 -9999.000 -9999.000 -9999.000 -9999.000 -9999.000 -9999.000 -9999.000 -9999.000 -9999.000 -9999.000 -9999.000 -9999.000 -9999.000 -9999.000 -9999.000 1851.247 1840.666 1835.003 1817.207 1806.693 1800.748 1785.855 1762.859 1761.244 1759.041 1745.942 1731.593 1721.027 1698.884 1681.038 1672.439 1648.304 1628.521 1607.051 1586.822 1606.004 1597.317 1588.734 1560.927 1539.431 1527.211 1515.714 1510.827 1506.991 1503.995 1503.775 1499.396 1485.199 1471.182 1460.018 1449.718 1439.065 1431.321 1423.433 1423.167 1422.290 1419.156 1409.124 1396.711 1388.663 1382.621 1379.230 1373.580 1370.775 1369.747 1364.450 1360.225 1356.135 1348.678 1345.220 1339.292 1330.005 1321.222 1315.287 1307.408 1299.755 1292.597 1286.619 1281.448 1278.248 1273.923 1270.411 1266.796 1265.808 1264.616 1264.612 1263.402 1262.286 1259.258 1258.590 1260.989 1255.052 1254.962 1252.579 1251.154 1249.964 1249.401 1246.671 1245.198 1243.656 1242.266 1241.056 1240.510 1239.798 1238.779 1237.726 1237.515 1237.289 1236.691 1236.160 1238.436 1243.387 1236.350 1234.689 1235.200 1237.689 1239.098 1242.980 -9999.000
-9999.000 -9999.000 -9999.000 -9999.000 -9999.000 -9999.000 -9999.000 -9999.000 -9999.000 -9999.000 -9999.000 -9999.000 -9999.000 -9999.000 -9999.000 -9999.000 -9999.000 -9999.000 -9999.000 -9999.000 -9999.000 -9999.000 -9999.000 -9999.000 -9999.000 -9999.000 -9999.000 1826.713 1814.820 1807.943 1787.619 1775.083 1764.226 1757.997 1734.981 1734.579 1734.487 1727.268 1718.584 1703.262 1683.644 1662.766 1634.494 1597.526 1586.364 1572.196 1579.099 1582.700 1567.114 1550.380 1532.971 1517.571 1503.936 1498.315 1493.693 1491.087 1487.869 1490.302 1481.843 1467.354 1453.525 1442.195 1432.442 1424.276 1415.796 1407.022 1406.445 1405.778 1399.630 1389.484 1377.792 1371.714 1371.162 1368.048 1362.810 1360.629 1357.447 1352.485 1347.482 1345.422 1337.784 1332.920 1327.843 1319.834 1310.411 1305.159 1298.560 1291.672 1284.878 1279.729 1274.635 1270.885 1268.083 1265.131 1263.447 1261.644 1260.388 1259.183 1257.949 1256.780 1254.892 1254.670 1253.984 1253.250 1249.716 1248.340 1247.251 1245.645 1245.763 1243.854 1242.494 1241.131 1239.937 1238.848 1238.093 1238.006 1237.980 1237.854 1236.818 1237.096 1243.009 1239.406 1235.102 1235.645 1239.579 1241.260 1245.695 1245.364 1251.850 1255.442
-9999.000 -9999.000 -9999.000 -9999.000 -9999.000 -9999.000 -9999.000 -9999.000 -9999.000 -9999.000 -9999.000 -9999.000 -9999.000 -9999.000 -9999.000 -9999.000 -9999.000 -9999.000 -9999.000 -9999.000 -9999.000 -9999.000 -9999.000 -9999.000 -9999.000 -9999.000 -9999.000 -9999.000 -9999.000 1789.475 1776.439 1767.617 1754.819 1737.570 1723.926 1709.738 1711.699 1708.104 1690.806 1683.726 1676.063 1660.151 1632.819 1603.526 1584.270 1565.901 1551.997 1564.985 1556.658 1543.103 1526.785 1508.662 1497.621 1485.087 1481.625 1479.559 1474.144 1474.401 1474.975 1465.389 1450.847 1436.052 1425.141 1416.725 1408.368 1398.239 1392.396 1390.562 1389.565 1379.583 1369.520 1361.779 1362.271 1360.958 1356.850 1351.850 1349.867 1344.513 1340.263 1336.451 1334.875 1326.493 1321.740 1316.967 1311.012 1301.165 1294.949 1289.790 1283.223 1277.339 1272.975 1269.075 1266.357 1263.429 1259.676 1258.289 1257.236 1256.274 1254.770 1253.458 1252.107 1250.574 1250.380 1248.325 1247.106 1245.878 1244.469 1243.556 1243.024 1242.525 1240.999 1239.701 1238.885 1238.274 1238.264 1238.195 1237.696 1237.421 1240.446 1242.098 1235.808 1235.384 1237.763 1237.436 1237.668 1245.237 1250.343 1252.266 1258.126 -9999.000
-9999.000 -9999.000 -9999.000 -9999.000 -9999.000 -9999.000 -9999.000 -9999.000 -9999.000 -9999.000 -9999.000 -9999.000 -9999.000 -9999.000 -9999.000 -9999.000 -9999.000 -9999.000 -9999.000 -9999.000 -9999.000 -9999.000 -9999.000 -9999.000 -9999.000 -9999.000 -9999.000 -9999.000 -9999.000 -9999.000 1764.178 1755.910 1747.159 1729.167 1712.933 1699.967 1684.217 1687.289 1682.476 1664.144 1644.935 1644.126 1621.246 1597.719 1581.525 1564.497 1544.216 1538.489 1532.939 1520.225 1507.235 1495.285 1486.683 1479.540 1469.213 1468.397 1462.582 1459.222 1459.673 1459.087 1452.596 1438.557 1423.111 1409.830 1400.815 1394.226 1382.943 1376.812 1375.490 1371.483 1361.251 1353.366 1354.640 1352.693 1349.896 1344.802 1341.065 1337.600 1331.784 1327.974 1326.508 1321.350 1314.676 1311.966 1305.183 1301.720 1293.962 1288.842 1282.334 1276.602 1271.165 1266.798 1263.734 1258.590 1256.176 1255.405 1254.926 1253.512 1251.902 1249.829 1249.001 1247.699 1246.289 1246.648 1244.654 1244.000 1242.514 1242.152 1241.275 1240.409 1239.511 1238.722 1238.915 1238.933 1238.657 1237.702 1240.039 1241.161 1236.049 1235.856 1237.388 1243.680 1240.826 1242.587 1246.098 1250.565 1258.262 1260.917 1265.273 -9999.000
-9999.000 -9999.000 -9999.000 -9999.000 -9999.000 -9999.000 -9999.000 -9999.000 -9999.000 -9999.000 -9999.000 -9999.000 -9999.000 -9999.000 -9999.000 -9999.000 -9999.000 -9999.000 -9999.000 -9999.000 -9999.000 -9999.000 -9999.000 -9999.000 -9999.000 -9999.000 -9999.000 -9999.000 -9999.000 -9999.000 -9999.000 1738.058 1732.417 1721.467 1707.365 1689.470 1675.372 1662.044 1652.894 1640.887 1627.595 1621.141 1613.758 1599.644 1584.845 1564.980 1541.150 1522.346 1516.968 1513.404 1501.942 1490.450 1479.406 1470.798 1462.934 1457.360 1452.270 1445.347 1443.980 1444.310 1445.286 1438.133 1422.715 1407.506 1394.311 1385.641 1377.751 1368.387 1361.964 1357.318 1352.722 1345.686 1347.701 1345.816 1343.700 1340.624 1335.263 1330.593 1325.204 1320.537 1318.708 1314.899 1309.264 1304.293 1301.710 1294.922 1289.939 1284.591 1280.724 1274.420 1271.014 1264.919 1260.481 1256.428 1254.111 1252.917 1252.402 1250.354 1248.733 1247.386 1245.211 1242.646 1242.336 1242.831 1242.289 1241.587 1241.090 1240.624 1240.169 1239.814 1239.413 1239.204 1238.934 1238.708 1242.243 1238.812 1236.190 1237.468 1239.213 1244.485 1250.818 1252.792 1252.292 1255.447 1258.167 1261.955 1264.564 1268.065 1273.769 -9999.000
-9999.000 -9999.000 -9999.000 -9999.000 -9999.000 -9999.000 -9999.000 -9999.000 -9999.000 -9999.000 -9999.000 -9999.000 -9999.000 -9999.000 -9999.000 -9999.000 -9999.000 -9999.000 -9999.000 -9999.000 -9999.000 -9999.000 -9999.000 -9999.000 -9999.000 -9999.000 -9999.000 -9999.000 -9999.000 -9999.000 -9999.000 -9999.000 1720.727 1711.115 1699.621 1684.206 1669.081 1657.735 1647.391 1635.147 1621.905 1606.486 1593.030 1581.311 1569.304 1550.568 1535.918 1525.104 1514.705 1498.268 1491.481 1488.365 1479.157 1466.679 1456.405 1449.009 1443.252 1436.292 1429.572 1428.529 1430.598 1434.708 1424.625 1410.327 1394.990 1381.245 1370.754 1363.113 1356.497 1348.372 1339.301 1337.314 1338.279 1337.342 1335.369 1333.576 1329.362 1324.321 1318.698 1314.347 1311.552 1308.027 1304.117 1298.181 1293.513 1290.843 1285.776 1280.866 1277.707 1273.204 1267.264 1262.413 1258.795 1255.543 1252.650 1250.641 1249.493 1247.964 1246.133 1244.052 1241.512 1241.474 1241.521 1241.429 1239.033 1240.359 1240.172 1239.878 1238.561 1238.032 1237.776 1237.644 1237.530 1237.245 1236.769 1237.578 1239.914 1245.683 1248.015 1253.189 1256.924 1261.097 1263.143 1265.711 1268.256 1270.411 1273.442 1274.895 -9999.000 -9999.000
-9999.000 -9999.000 -9999.000 -9999.000 -9999.000 -9999.000 -9999.000 -9999.000 -9999.000 -9999.000 -9999.000 -9999.000 -9999.000 -9999.000 -9999.000 -9999.000 -9999.000 -9999.000 -9999.000 -9999.000 -9999.000 -9999.000 -9999.000 -9999.000 -9999.000 -9999.000 -9999.000 -9999.000 -9999.000 -9999.000 -9999.000 -9999.000 -9999.000 1707.352 1697.532 1686.540 1673.077 1659.694 1648.151 1636.270 1622.266 1605.910 1590.996 1575.629 1560.092 1547.017 1534.957 1525.429 1513.713 1500.699 1486.772 1473.012 1469.789 1462.172 1455.381 1445.087 1436.263 1429.728 1422.071 1415.071 1415.548 1419.934 1421.836 1413.342 1396.939 1382.303 1369.080 1357.780 1350.305 1345.230 1337.370 1329.931 1330.011 1330.047 1327.890 1325.441 1323.381 1318.569 1312.528 1309.188 1303.557 1301.807 1299.539 1294.053 1289.515 1285.868 1279.011 1275.575 1273.032 1270.602 1266.022 1260.814 1257.202 1254.222 1251.377 1247.824 1245.485 1245.460 1243.987 1242.654 1241.546 1241.555 1240.457 1240.630 1240.457 1240.064 1240.009 1239.679 1239.431 1239.335 1239.000 1238.596 1238.436 1238.282 1238.385 1243.844 1245.964 1250.867 1257.309 1260.147 1263.393 1268.572 1272.491 1274.644 1276.531 1279.493 1281.634 1281.566 -9999.000 -9999.000
-9999.000 -9999.000 -9999.000 -9999.000 -9999.000 -9999.000 -9999.000 -9999.000 -9999.000 -9999.000 -9999.000 -9999.000 -9999.000 -9999.000 -9999.000 -9999.000 -9999.000 -9999.000 -9999.000 -9999.000 -9999.000 -9999.000 -9999.000 -9999.000 -9999.000 -9999.000 -9999.000 -9999.000 -9999.000 -9999.000 -9999.000 -9999.000 -9999.000 -9999.000 1700.361 1688.826 1677.764 1665.529 1653.790 1642.827 1629.705 1617.122 1602.442 1585.226 1572.118 1556.689 1542.868 1528.463 1518.028 1509.507 1496.215 1481.029 1464.000 1450.497 1438.152 1429.609 1428.438 1425.195 1416.385 1410.075 1403.510 1403.818 1406.281 1407.606 1398.772 1387.308 1375.061 1360.844 1346.609 1338.416 1332.288 1324.729 1322.620 1322.064 1320.032 1320.361 1316.417 1312.931 1305.904 1303.324 1298.969 1295.702 1292.641 1289.663 1286.955 1281.430 1276.016 1272.008 1267.544 1264.975 1262.523 1259.042 1256.005 1252.945 1254.748 1246.182 1244.870 1242.906 1242.471 1242.039 1241.544 1240.212 1241.250 1240.472 1240.276 1240.119 1239.957 1239.877 1239.646 1239.538 1239.087 1238.841 1239.047 1241.181 1244.722 1249.722 1253.253 1258.143 1263.353 1266.544 1270.147 1277.154 1282.004 1284.817 1286.490 1286.700 1290.721 -9999.000 -9999.000 -9999.000
-9999.000 -9999.000 -9999.000 -9999.000 -9999.000 -9999.000 -9999.000 -9999.000 -9999.000 -9999.000 -9999.000 -9999.000 -9999.000 -9999.000 -9999.000 -9999.000 -9999.000 -9999.000 -9999.000 -9999.000 -9999.000 -9999.000 -9999.000 -9999.000 -9999.000 -9999.000 -9999.000 -9999.000 -9999.000 -9999.000 -9999.000 -9999.000 -9999.000 -9999.000 -9999.000 -9999.000 1679.716 1670.342 1657.691 1646.285 1633.903 1620.996 1609.589 1596.563 1582.945 1568.122 1553.629 1540.047 1530.800 1518.026 1502.890 1489.138 1473.421 1463.451 1452.520 1438.673 1423.084 1411.893 1414.615 1404.924 1397.454 1390.959 1390.296 1392.239 1388.820 1379.904 1369.708 1358.143 1347.458 1336.683 1327.940 1319.599 1314.981 1314.755 1314.817 1312.202 1309.882 1307.432 1302.380 1297.610 1293.725 1290.493 1286.111 1284.711 1281.609 1277.099 1272.942 1269.544 1265.186 1261.683 1258.671 1256.630 1254.358 1251.671 1252.883 1246.328 1243.361 1242.359 1242.245 1242.059 1240.300 1241.515 1240.907 1240.541 1240.278 1240.165 1240.686 1240.758 1240.734 1240.572 1240.535 1241.293 1244.341 1245.886 1249.657 1254.909 1260.360 1264.896 1271.104 1275.558 1275.292 1281.504 1288.983 1293.672 1296.344 1296.586 1298.845 -9999.000 -9999.000 -9999.000
-9999.000 -9999.000 -9999.000 -9999.000 -9999.000 -9999.000 -9999.000 -9999.000 -9999.000 -9999.000 -9999.000 -9999.000 -9999.000 -9999.000 -9999.000 -9999.000 -9999.000 -9999.000 -9999.000 -9999.000 -9999.000 -9999.000 -9999.000 -9999.000 -9999.000 -9999.000 -9999.000 -9999.000 -9999.000 -9999.000 -9999.000 -9999.000 -9999.000 -9999.000 -9999.000 -9999.000 -9999.000 1672.117 1657.916 1648.197 1637.273 1625.883 1614.431 1603.757 1588.927 1577.235 1565.347 1552.477 1539.817 1524.980 1508.011 1492.893 1487.780 1478.626 1462.929 1447.125 1430.510 1415.233 1399.670 1403.790 1393.203 1387.601 1380.454 1377.024 1378.211 1371.826 1362.981 1351.785 1340.574 1330.840 1321.309 1315.623 1310.486 1308.584 1307.200 1305.188 1303.805 1300.415 1296.720 1294.042 1289.000 1285.889 1282.779 1280.812 1278.184 1274.473 1270.508 1264.936 1263.127 1261.588 1257.449 1254.464 1252.510 1250.325 1247.988 1243.187 1242.725 1242.511 1242.459 1240.891 1241.715 1241.155 1240.705 1240.495 1241.308 1242.868 1243.855 1244.208 1244.393 1244.241 1244.187 1245.995 1249.001 1252.586 1254.689 1259.157 1266.262 1271.965 1277.711 1281.807 1283.105 1287.849 1293.460 1300.785 1305.761 1306.881 -9999.000 -9999.000 -9999.000 -9999.000
-9999.000 -9999.000 -9999.000 -9999.000 -9999.000 -9999.000 -9999.000 -9999.000 -9999.000 -9999.000 -9999.000 -9999.000 -9999.000 -9999.000 -9999.000 -9999.000 -9999.000 -9999.000 -9999.000 -9999.000 -9999.000 -9999.000 -9999.000 -9999.000 -9999.000 -9999.000 -9999.000 -9999.000 -9999.000 -9999.000 -9999.000 -9999.000 -9999.000 -9999.000 -9999.000 -9999.000 -9999.000 -9999.000 1658.324 1646.341 1636.651 1624.903 1613.526 1603.562 1591.838 1583.127 1572.881 1556.621 1543.207 1528.867 1514.229 1499.369 1490.484 1486.600 1473.309 1456.638 1441.056 1422.712 1404.746 1388.609 1392.496 1381.922 1375.689 1368.859 1364.769 1361.978 1353.489 1344.996 1335.479 1325.424 1317.716 1312.272 1306.228 1303.447 1300.719 1298.995 1297.712 1294.988 1291.211 1288.214 1285.585 1280.421 1278.752 1275.737 1274.914 1270.446 1267.388 1262.644 1259.022 1257.482 1255.272 1253.028 1250.995 1248.993 1246.645 1243.449 1242.013 1241.480 1242.134 1241.640 1241.765 1241.560 1241.766 1242.516 1244.510 1246.325 1247.854 1248.446 1248.173 1249.147 1250.610 1252.076 1254.023 1255.599 1262.506 1265.633 1270.964 1278.594 1285.377 1290.606 1292.357 1296.850 1301.031 1307.062 1314.184 1317.402 -9999.000 -9999.000 -9999.000 -9999.000
-9999.000 -9999.000 -9999.000 -9999.000 -9999.000 -9999.000 -9999.000 -9999.000 -9999.000 -9999.000 -9999.000 -9999.000 -9999.000 -9999.000 -9999.000 -9999.000 -9999.000 -9999.000 -9999.000 -9999.000 -9999.000 -9999.000 -9999.000 -9999.000 -9999.000 -9999.000 -9999.000 -9999.000 -9999.000 -9999.000 -9999.000 -9999.000 -9999.000 -9999.000 -9999.000 -9999.000 -9999.000 -9999.000 -9999.000 1647.959 1640.695 1632.318 1621.831 1607.443 1597.329 1587.734 1573.199 1556.749 1544.863 1532.415 1517.975 1502.960 1494.212 1489.862 1477.805 1461.634 1445.454 1428.592 1410.532 1392.750 1379.129 1379.971 1371.428 1365.626 1358.448 1354.070 1346.019 1338.657 1331.177 1324.243 1316.104 1309.963 1303.912 1299.031 1295.779 1292.557 1291.461 1289.421 1286.329 1283.640 1280.475 1277.278 1273.636 1271.205 1268.916 1267.923 1263.803 1259.677 1255.206 1255.001 1253.030 1251.023 1248.920 1246.276 1243.118 1241.973 1242.790 1242.283 1242.093 1242.000 1243.022 1243.366 1243.883 1244.986 1247.448 1249.624 1251.773 1252.803 1253.419 1253.825 1256.386 1258.405 1260.164 1262.955 1269.112 1273.106 1279.231 1283.328 1292.227 1300.698 1302.380 1305.800 1310.078 1316.327 1322.488 -9999.000 -9999.000 -9999.000 -9999.000 -9999.000
-9999.000 -9999.000 -9999.000 -9999.000 -9999.000 -9999.000 -9999.000 -9999.000 -9999.000 -9999.000 -9999.000 -9999.000 -9999.000 -9999.000 -9999.000 -9999.000 -9999.000 -9999.000 -9999.000 -9999.000 -9999.000 -9999.000 -9999.000 -9999.000 -9999.000 -9999.000 -9999.000 -9999.000 -9999.000 -9999.000 -9999.000 -9999.000 -9999.000 -9999.000 -9999.000 -9999.000 -9999.000 -9999.000 -9999.000 -9999.000 1638.078 1630.809 1615.998 1606.152 1596.381 1587.786 1572.611 1555.825 1544.698 1530.740 1516.888 1503.397 1495.621 1489.843 1479.338 1464.262 1449.732 1432.006 1413.323 1396.108 1379.237 1369.414 1368.736 1361.990 1355.144 1348.209 1344.085 1337.313 1329.128 1322.452 1316.074 1309.488 1303.021 1296.797 1292.109 1288.504 1286.296 1285.691 1281.000 1280.728 1276.014 1273.899 1272.759 1268.559 1266.120 1264.295 1260.771 1257.072 1253.797 1251.933 1250.468 1248.511 1244.830 1241.943 1243.556 1242.848 1242.490 1242.477 1242.296 1242.329 1243.495 1244.078 1245.463 1247.557 1250.069 1252.858 1255.904 1257.625 1258.428 1258.777 1260.802 1264.886 1267.523 1270.020 1274.816 1280.175 1284.684 1291.219 1296.347 1306.099 1312.491 1315.357 1317.585 1324.273 1331.913 -9999.000 -9999.000 -9999.000 -9999.000 -9999.000
-9999.000 -9999.000 -9999.000 -9999.000 -9999.000 -9999.000 -9999.000 -9999.000 -9999.000 -9999.000 -9999.000 -9999.000 -9999.000 -9999.000 -9999.000 -9999.000 -9999.000 -9999.000 -9999.000 -9999.000 -9999.000 -9999.000 -9999.000 -9999.000 -9999.000 -9999.000 -9999.000 -9999.000 -9999.000 -9999.000 -9999.000 -9999.000 -9999.000 -9999.000 -9999.000 -9999.000 -9999.000 -9999.000 -9999.000 -9999.000 -9999.000 1627.778 1617.848 1606.915 1595.784 1585.122 1568.554 1554.907 1541.036 1526.744 1513.695 1502.550 1494.002 1486.891 1475.424 1462.366 1449.630 1434.586 1419.047 1403.458 1386.721 1370.732 1359.217 1354.625 1349.525 1341.297 1336.490 1334.993 1328.588 1321.664 1314.975 1308.402 1301.884 1295.369 1290.049 1285.200 1282.457 1279.938 1280.194 1275.397 1271.702 1268.810 1268.446 1265.041 1262.052 1259.627 1257.077 1254.483 1251.736 1249.734 1247.976 1244.791 1242.579 1243.643 1243.188 1242.887 1242.620 1242.500 1242.462 1242.884 1243.721 1244.359 1246.089 1249.193 1253.052 1256.184 1259.144 1262.490 1263.625 1263.814 1265.745 1269.573 1275.080 1277.632 1281.046 1287.075 1292.205 1297.715 1303.067 1310.082 1320.187 1325.606 1328.100 1332.604 -9999.000 -9999.000 -9999.000 -9999.000 -9999.000 -9999.000
-9999.000 -9999.000 -9999.000 -9999.000 -9999.000 -9999.000 -9999.000 -9999.000 -9999.000 -9999.000 -9999.000 -9999.000 -9999.000 -9999.000 -9999.000 -9999.000 -9999.000 -9999.000 -9999.000 -9999.000 -9999.000 -9999.000 -9999.000 -9999.000 -9999.000 -9999.000 -9999.000 -9999.000 -9999.000 -9999.000 -9999.000 -9999.000 -9999.000 -9999.000 -9999.000 -9999.000 -9999.000 -9999.000 -9999.000 -9999.000 -9999.000 -9999.000 1617.216 1607.163 1591.825 1579.461 1564.786 1552.316 1537.650 1522.605 1511.480 1500.169 1490.619 1482.191 1471.918 1459.893 1445.453 1431.878 1416.025 1400.468 1386.628 1371.724 1364.485 1356.821 1349.463 1342.269 1336.340 1329.036 1323.049 1321.197 1314.032 1307.448 1301.328 1294.943 1289.280 1284.738 1281.769 1278.753 1275.678 1273.438 1268.609 1267.074 1265.425 1262.310 1259.798 1256.573 1254.422 1251.959 1249.339 1247.009 1243.844 1244.640 1243.787 1243.285 1243.104 1242.818 1242.761 1242.971 1242.958 1243.705 1245.426 1247.461 1249.573 1252.408 1256.775 1259.817 1264.516 1266.900 1270.083 1268.907 1271.464 1274.195 1279.768 1287.219 1288.936 1292.789 1300.279 1305.954 1311.367 1317.623 1324.375 1333.212 1338.164 1341.607 -9999.000 -9999.000 -9999.000 -9999.000 -9999.000 -9999.000
-9999.000 -9999.000 -9999.000 -9999.000 -9999.000 -9999.000 -9999.000 -9999.000 -9999.000 -9999.000 -9999.000 -9999.000 -9999.000 -9999.000 -9999.000 -9999.000 -9999.000 -9999.000 -9999.000 -9999.000 -9999.000 -9999.000 -9999.000 -9999.000 -9999.000 -9999.000 -9999.000 -9999.000 -9999.000 -9999.000 -9999.000 -9999.000 -9999.000 -9999.000 -9999.000 -9999.000 -9999.000 -9999.000 -9999.000 -9999.000 -9999.000 -9999.000 -9999.000 -9999.000 1581.447 1569.350 1559.892 1548.306 1531.986 1517.265 1508.369 1499.218 1486.786 1476.457 1467.623 1454.989 1439.562 1425.575 1410.848 1395.215 1379.494 1367.865 1360.079 1353.807 1346.180 1338.803 1332.412 1326.824 1321.949 1317.769 1313.130 1305.524 1301.503 1296.514 1290.472 1285.530 1281.592 1278.271 1274.789 1271.171 1267.981 1265.339 1262.559 1259.935 1257.407 1255.067 1252.719 1250.282 1247.419 1244.150 1244.753 1243.987 1243.655 1243.271 1243.101 1243.645 1244.246 1243.857 1244.441 1246.102 1248.506 1251.110 1253.677 1256.306 1260.063 1263.685 1269.162 1272.647 1274.647 1275.553 1277.192 1279.856 1284.103 1291.295 1299.050 1301.725 1306.281 1312.248 1319.794 1326.583 1330.290 1338.634 1345.474 -9999.000 -9999.000 -9999.000 -9999.000 -9999.000 -9999.000 -9999.000
-9999.000 -9999.000 -9999.000 -9999.000 -9999.000 -9999.000 -9999.000 -9999.000 -9999.000 -9999.000 -9999.000 -9999.000 -9999.000 -9999.000 -9999.000 -9999.000 -9999.000 -9999.000 -9999.000 -9999.000 -9999.000 -9999.000 -9999.000 -9999.000 -9999.000 -9999.000 -9999.000 -9999.000 -9999.000 -9999.000 -9999.000 -9999.000 -9999.000 -9999.000 -9999.000 -9999.000 -9999.000 -9999.000 -9999.000 -9999.000 -9999.000 -9999.000 -9999.000 -9999.000 -9999.000 1555.568 1550.038 1541.920 1527.897 1514.202 1503.797 1494.918 1483.267 1471.932 1462.849 1447.404 1431.585 1418.010 1405.522 1389.233 1372.286 1359.065 1361.314 1350.341 1343.751 1337.121 1330.354 1324.225 1318.372 1313.541 1308.932 1303.992 1299.080 1294.582 1290.240 1284.532 1280.038 1277.142 1273.749 1270.299 1266.984 1263.907 1261.047 1258.667 1256.109 1253.493 1250.963 1248.795 1247.685 1244.339 1244.359 1243.869 1243.804 1243.763 1243.675 1244.900 1245.195 1245.979 1246.797 1248.846 1251.646 1254.726 1257.716 1260.663 1264.046 1269.049 1271.680 1277.557 1280.500 1283.175 1284.473 1286.366 1288.760 1295.684 1303.464 1311.028 1316.775 1320.112 1326.452 1333.818 1340.923 1344.281 1353.557 -9999.000 -9999.000 -9999.000 -9999.000 -9999.000 -9999.000 -9999.000
-9999.000 -9999.000 -9999.000 -9999.000 -9999.000 -9999.000 -9999.000 -9999.000 -9999.000 -9999.000 -9999.000 -9999.000 -9999.000 -9999.000 -9999.000 -9999.000 -9999.000 -9999.000 -9999.000 -9999.000 -9999.000 -9999.000 -9999.000 -9999.000 -9999.000 -9999.000 -9999.000 -9999.000 -9999.000 -9999.000 -9999.000 -9999.000 -9999.000 -9999.000 -9999.000 -9999.000 -9999.000 -9999.000 -9999.000 -9999.000 -9999.000 -9999.000 -9999.000 -9999.000 -9999.000 -9999.000 1538.037 1532.846 1522.420 1508.744 1498.854 1489.422 1476.644 1467.060 1455.259 1439.361 1424.007 1411.135 1399.093 1383.305 1366.445 1352.990 1350.798 1351.155 1343.686 1334.954 1329.178 1322.663 1316.442 1310.775 1305.705 1300.780 1295.872 1291.343 1287.364 1281.776 1278.128 1275.041 1271.597 1269.199 1266.031 1262.895 1259.949 1257.415 1255.038 1252.662 1250.602 1248.920 1244.311 1244.804 1244.444 1244.127 1243.902 1244.003 1245.187 1245.786 1246.490 1248.240 1249.630 1251.638 1254.652 1258.057 1261.448 1264.557 1268.082 1272.932 1277.877 1280.648 1286.349 1289.892 1292.754 1294.061 1297.070 1302.225 1308.347 1314.774 1322.614 1331.083 1334.604 1341.013 1347.341 1352.940 -9999.000 -9999.000 -9999.000 -9999.000 -9999.000 -9999.000 -9999.000 -9999.000
-9999.000 -9999.000 -9999.000 -9999.000 -9999.000 -9999.000 -9999.000 -9999.000 -9999.000 -9999.000 -9999.000 -9999.000 -9999.000 -9999.000 -9999.000 -9999.000 -9999.000 -9999.000 -9999.000 -9999.000 -9999.000 -9999.000 -9999.000 -9999.000 -9999.000 -9999.000 -9999.000 -9999.000 -9999.000 -9999.000 -9999.000 -9999.000 -9999.000 -9999.000 -9999.000 -9999.000 -9999.000 -9999.000 -9999.000 -9999.000 -9999.000 -9999.000 -9999.000 -9999.000 -9999.000 -9999.000 -9999.000 1516.180 1512.819 1502.254 1491.990 1478.892 1466.015 1458.831 1444.528 1430.017 1414.985 1401.961 1389.591 1378.320 1362.263 1346.612 1340.776 1338.916 1337.143 1331.353 1327.242 1321.022 1315.270 1309.871 1303.427 1297.901 1292.836 1288.568 1284.104 1279.547 1274.850 1272.171 1270.111 1266.699 1265.095 1262.074 1259.223 1256.698 1254.306 1251.961 1250.451 1249.866 1245.344 1245.141 1245.207 1245.190 1245.284 1245.062 1245.861 1245.902 1247.539 1250.791 1252.647 1254.860 1257.893 1261.529 1265.169 1269.724 1273.488 1277.622 1284.090 1286.012 1290.153 1297.999 1301.232 1303.426 1306.959 1310.049 1313.758 1321.061 1329.015 1335.229 1344.275 1348.486 1354.710 1362.089 -9999.000 -9999.000 -9999.000 -9999.000 -9999.000 -9999.000 -9999.000 -9999.000
-9999.000 -9999.000 -9999.000 -9999.000 -9999.000 -9999.000 -9999.000 -9999.000 -9999.000 -9999.000 -9999.000 -9999.000 -9999.000 -9999.000 -9999.000 -9999.000 -9999.000 -9999.000 -9999.000 -9999.000 -9999.000 -9999.000 -9999.000 -9999.000 -9999.000 -9999.000 -9999.000 -9999.000 -9999.000 -9999.000 -9999.000 -9999.000 -9999.000 -9999.000 -9999.000 -9999.000 -9999.000 -9999.000 -9999.000 -9999.000 -9999.000 -9999.000 -9999.000 -9999.000 -9999.000 -9999.000 -9999.000 -9999.000 -9999.000 1494.236 1483.133 1469.241 1455.834 1446.198 1431.818 1418.496 1404.240 1390.854 1379.617 1370.280 1359.353 1343.527 1335.628 1331.367 1327.217 1321.442 1322.536 1321.006 1313.483 1306.106 1301.184 1295.177 1290.052 1285.199 1280.656 1277.272 1272.958 1269.152 1267.026 1265.099 1263.344 1260.906 1257.346 1256.057 1253.850 1251.902 1249.038 1245.034 1245.527 1245.970 1245.699 1245.498 1245.360 1245.355 1246.254 1246.775 1248.690 1252.692 1255.991 1258.210 1261.636 1265.467 1271.119 1274.417 1277.965 1281.590 1287.608 1293.192 1296.514 1301.181 1308.303 1312.075 1315.627 1319.539 1320.408 1325.583 1334.718 1343.623 1352.140 1358.063 1362.327 -9999.000 -9999.000 -9999.000 -9999.000 -9999.000 -9999.000 -9999.000 -9999.000 -9999.000
-9999.000 -9999.000 -9999.000 -9999.000 -9999.000 -9999.000 -9999.000 -9999.000 -9999.000 -9999.000 -9999.000 -9999.000 -9999.000 -9999.000 -9999.000 -9999.000 -9999.000 -9999.000 -9999.000 -9999.000 -9999.000 -9999.000 -9999.000 -9999.000 -9999.000 -9999.000 -9999.000 -9999.000 -9999.000 -9999.000 -9999.000 -9999.000 -9999.000 -9999.000 -9999.000 -9999.000 -9999.000 -9999.000 -9999.000 -9999.000 -9999.000 -9999.000 -9999.000 -9999.000 -9999.000 -9999.000 -9999.000 -9999.000 -9999.000 -9999.000 -9999.000 -9999.000 1446.761 1433.156 1419.755 1406.802 1391.968 1378.534 1369.610 1360.302 1350.872 1341.007 1331.299 1327.474 1321.653 1315.848 1312.918 1311.765 1307.421 1300.826 1296.673 1291.695 1286.559 1281.699 1277.417 1274.313 1270.828 1267.093 1264.032 1262.785 1260.325 1259.263 1258.566 1258.328 1252.670 1250.722 1245.540 1247.425 1246.367 1246.487 1245.976 1245.935 1245.775 1246.093 1246.556 1248.319 1250.982 1254.801 1259.766 1263.098 1266.703 1270.469 1274.747 1279.437 1283.738 1288.142 1293.267 1298.159 1304.337 1308.363 1314.414 1319.961 1324.954 1328.620 1330.152 1330.680 1337.958 1346.970 1356.889 1365.430 1373.727 -9999.000 -9999.000 -9999.000 -9999.000 -9999.000 -9999.000 -9999.000 -9999.000 -9999.000
-9999.000 -9999.000 -9999.000 -9999.000 -9999.000 -9999.000 -9999.000 -9999.000 -9999.000 -9999.000 -9999.000 -9999.000 -9999.000 -9999.000 -9999.000 -9999.000 -9999.000 -9999.000 -9999.000 -9999.000 -9999.000 -9999.000 -9999.000 -9999.000 -9999.000 -9999.000 -9999.000 -9999.000 -9999.000 -9999.000 -9999.000 -9999.000 -9999.000 -9999.000 -9999.000 -9999.000 -9999.000 -9999.000 -9999.000 -9999.000 -9999.000 -9999.000 -9999.000 -9999.000 -9999.000 -9999.000 -9999.000 -9999.000 -9999.000 -9999.000 -9999.000 -9999.000 -9999.000 -9999.000 1409.124 1395.939 1381.567 1368.434 1359.143 1350.063 1344.371 1336.203 1330.530 1321.942 1317.900 1313.064 1309.604 1301.699 1297.055 1295.166 1292.191 1287.885 1282.875 1278.616 1274.231 1270.400 1268.128 1265.537 1262.185 1260.028 1258.382 1256.823 1252.708 1252.629 1250.383 1248.685 1245.331 1247.280 1247.484 1246.800 1247.009 1247.183 1246.889 1247.225 1247.718 1249.698 1252.733 1257.345 1262.351 1267.108 1271.711 1275.919 1278.611 1283.907 1289.121 1294.480 1299.157 1305.185 1309.510 1315.388 1320.245 1326.520 1333.325 1338.826 1339.153 1337.732 1342.923 1350.118 1359.066 1370.674 -9999.000 -9999.000 -9999.000 -9999.000 -9999.000 -9999.000 -9999.000 -9999.000 -9999.000 -9999.000
-9999.000 -9999.000 -9999.000 -9999.000 -9999.000 -9999.000 -9999.000 -9999.000 -9999.000 -9999.000 -9999.000 -9999.000 -9999.000 -9999.000 -9999.000 -9999.000 -9999.000 -9999.000 -9999.000 -9999.000 -9999.000 -9999.000 -9999.000 -9999.000 -9999.000 -9999.000 -9999.000 -9999.000 -9999.000 -9999.000 -9999.000 -9999.000 -9999.000 -9999.000 -9999.000 -9999.000 -9999.000 -9999.000 -9999.000 -9999.000 -9999.000 -9999.000 -9999.000 -9999.000 -9999.000 -9999.000 -9999.000 -9999.000 -9999.000 -9999.000 -9999.000 -9999.000 -9999.000 -9999.000 -9999.000 -9999.000 1374.340 1363.445 1352.523 1343.994 1336.600 1332.060 1327.808 1322.153 1313.132 1310.845 1305.077 1296.811 1290.717 1289.109 1286.975 1282.982 1278.549 1275.211 1271.274 1266.885 1263.675 1262.711 1260.588 1257.645 1256.288 1255.108 1252.875 1250.381 1249.026 1248.395 1245.714 1247.275 1247.127 1247.633 1247.713 1248.446 1248.553 1248.711 1250.039 1251.187 1254.885 1259.988 1265.737 1271.994 1277.175 1281.159 1285.271 1288.408 1294.184 1300.427 1305.287 1310.818 1316.664 1321.512 1327.658 1331.730 1337.935 1344.931 1350.227 1348.468 1353.025 1357.162 1363.690 1372.418 -9999.000 -9999.000 -9999.000 -9999.000 -9999.000 -9999.000 -9999.000 -9999.000 -9999.000 -9999.000
-9999.000 -9999.000 -9999.000 -9999.000 -9999.000 -9999.000 -9999.000 -9999.000 -9999.000 -9999.000 -9999.000 -9999.000 -9999.000 -9999.000 -9999.000 -9999.000 -9999.000 -9999.000 -9999.000 -9999.000 -9999.000 -9999.000 -9999.000 -9999.000 -9999.000 -9999.000 -9999.000 -9999.000 -9999.000 -9999.000 -9999.000 -9999.000 -9999.000 -9999.000 -9999.000 -9999.000 -9999.000 -9999.000 -9999.000 -9999.000 -9999.000 -9999.000 -9999.000 -9999.000 -9999.000 -9999.000 -9999.000 -9999.000 -9999.000 -9999.000 -9999.000 -9999.000 -9999.000 -9999.000 -9999.000 -9999.000 -9999.000 -9999.000 1347.242 1338.107 1331.941 1328.223 1325.658 1319.122 1311.930 1304.300 1297.236 1291.743 1285.609 1283.482 1281.273 1279.347 1274.900 1271.265 1267.699 1263.061 1260.647 1259.173 1258.288 1255.715 1254.143 1252.608 1251.011 1249.664 1248.469 1248.104 1246.024 1247.384 1247.306 1248.036 1249.628 1250.412 1250.944 1251.351 1252.857 1252.832 1257.574 1262.746 1270.716 1276.473 1281.199 1286.295 1290.754 1294.971 1299.387 1306.179 1312.067 1316.923 1323.059 1327.771 1334.112 1339.380 1343.100 1351.424 1357.582 1360.322 1362.713 1367.923 1373.685 -9999.000 -9999.000 -9999.000 -9999.000 -9999.000 -9999.000 -9999.000 -9999.000 -9999.000 -9999.000 -9999.000
-9999.000 -9999.000 -9999.000 -9999.000 -9999.000 -9999.000 -9999.000 -9999.000 -9999.000 -9999.000 -9999.000 -9999.000 -9999.000 -9999.000 -9999.000 -9999.000 -9999.000 -9999.000 -9999.000 -9999.000 -9999.000 -9999.000 -9999.000 -9999.000 -9999.000 -9999.000 -9999.000 -9999.000 -9999.000 -9999.000 -9999.000 -9999.000 -9999.000 -9999.000 -9999.000 -9999.000 -9999.000 -9999.000 -9999.000 -9999.000 -9999.000 -9999.000 -9999.000 -9999.000 -9999.000 -9999.000 -9999.000 -9999.000 -9999.000 -9999.000 -9999.000 -9999.000 -9999.000 -9999.000 -9999.000 -9999.000 -9999.000 -9999.000 -9999.000 -9999.000 -9999.000 1323.063 1319.117 1313.081 1307.186 1299.812 1291.410 1283.001 1280.338 1278.662 1277.346 1274.801 1271.660 1267.977 1264.155 1259.904 1257.295 1256.349 1255.585 1254.060 1252.391 1251.006 1250.484 1248.559 1247.929 1247.693 1246.476 1247.576 1247.955 1249.056 1250.979 1253.037 1254.114 1253.977 1255.603 1256.693 1259.702 1265.253 1272.486 1279.828 1286.849 1292.494 1296.808 1301.279 1306.361 1312.366 1317.770 1323.753 1328.086 1335.554 1340.385 1346.560 1351.776 1357.064 1365.844 1372.524 1373.602 1378.244 1384.738 -9999.000 -9999.000 -9999.000 -9999.000 -9999.000 -9999.000 -9999.000 -9999.000 -9999.000 -9999.000 -9999.000
-9999.000 -9999.000 -9999.000 -9999.000 -9999.000 -9999.000 -9999.000 -9999.000 -9999.000 -9999.000 -9999.000 -9999.000 -9999.000 -9999.000 -9999.000 -9999.000 -9999.000 -9999.000 -9999.000 -9999.000 -9999.000 -9999.000 -9999.000 -9999.000 -9999.000 -9999.000 -9999.000 -9999.000 -9999.000 -9999.000 -9999.000 -9999.000 -9999.000 -9999.000 -9999.000 -9999.000 -9999.000 -9999.000 -9999.000 -9999.000 -9999.000 -9999.000 -9999.000 -9999.000 -9999.000 -9999.000 -9999.000 -9999.000 -9999.000 -9999.000 -9999.000 -9999.000 -9999.000 -9999.000 -9999.000 -9999.000 -9999.000 -9999.000 -9999.000 -9999.000 -9999.000 -9999.000 -9999.000 1305.535 1296.202 1289.713 1281.515 1277.247 1276.586 1274.786 1273.351 1271.167 1268.595 1265.503 1261.816 1258.582 1255.972 1254.816 1253.327 1252.156 1251.024 1250.573 1250.151 1248.313 1247.958 1247.618 1246.650 1247.721 1248.366 1252.013 1253.030 1256.156 1258.148 1258.716 1260.571 1262.235 1265.936 1270.787 1276.575 1283.540 1290.789 1297.383 1301.391 1306.995 1311.701 1318.186 1325.257 1330.192 1336.061 1342.723 1348.367 1353.612 1358.738 1364.442 1371.602 1376.703 1385.603 1388.520 -9999.000 -9999.000 -9999.000 -9999.000 -9999.000 -9999.000 -9999.000 -9999.000 -9999.000 -9999.000 -9999.000 -9999.000
