ncols 200
nrows 55
xllcenter 997.5
yllcenter -4972.5
cellsize 25.00
NODATA_value -9999.000
2500.000 2500.000 2500.000 2500.000 2500.000 2500.000 2500.000 2500.000 2500.000 2500.000 2482.679 2165.822 2029.044 1924.957 1837.958 1761.979 1693.898 1631.855 1574.635 1521.391 1471.506 1424.512 1380.045 1337.815 1297.586 1259.164 1222.385 1187.112 1153.226 1120.625 1089.220 1058.933 1029.694 1001.442 974.123 947.687 922.090 897.291 873.255 849.947 827.337 805.398 784.104 763.430 743.355 723.859 704.923 686.530 668.662 651.305 634.444 618.066 602.159 586.711 571.711 557.148 543.013 529.296 515.989 503.084 490.572 478.447 466.702 455.330 444.325 433.681 423.392 413.454 403.861 394.608 385.692 377.107 368.850 360.917 353.305 346.010 339.028 332.357 325.994 319.937 314.182 308.728 303.571 298.711 294.144 289.870 285.886 282.191 278.784 275.663 272.827 270.275 268.005 266.018 264.312 262.887 261.742 260.876 260.290 259.983 259.955 260.206 260.737 261.546 262.635 264.005 265.654 267.585 269.798 272.294 275.073 278.137 281.487 285.124 289.050 293.266 297.774 302.575 307.672 313.067 318.762 324.759 331.060 337.669 344.588 351.821 359.369 367.238 375.429 383.948 392.798 401.983 411.508 421.377 431.595 442.167 453.100 464.398 476.068 488.117 500.550 513.376 526.602 540.236 554.287 568.763 583.675 599.033 614.847 631.130 647.893 665.150 682.914 701.202 720.028 739.411 759.368 779.920 801.089 822.897 845.370 868.536 892.424 917.068 942.502 968.767 995.906 1023.966 1053.003 1083.076 1114.251 1146.606 1180.227 1215.214 1251.681 1289.762 1329.615 1371.428 1415.426 1461.889 1511.162 1563.691 1620.057 1681.052 1747.803 1822.007 1906.451 2006.365 2134.213 2349.418 2500.000 2500.000 2500.000 2500.000 2500.000 2500.000 2500.000 2500.000 2500.000 2500.000
2500.000 2500.000 2500.000 2500.000 2500.000 2500.000 2500.000 2500.000 2500.000 2500.000 2500.000 2264.310 2092.968 1976.025 1881.797 1801.036 1729.497 1664.805 1605.475 1550.500 1499.163 1450.929 1405.388 1362.217 1321.155 1281.989 1244.542 1208.663 1174.227 1141.122 1109.254 1078.539 1048.906 1020.287 992.626 965.872 939.976 914.897 890.598 867.043 844.200 822.040 800.537 779.666 759.404 739.730 720.625 702.071 684.050 666.547 649.547 633.037 617.004 601.435 586.319 571.646 557.405 543.587 530.184 517.186 504.587 492.377 480.551 469.101 458.022 447.307 436.950 426.947 417.291 407.979 399.006 390.367 382.059 374.077 366.417 359.077 352.053 345.342 338.941 332.848 327.058 321.572 316.385 311.496 306.903 302.604 298.597 294.881 291.454 288.315 285.463 282.896 280.614 278.615 276.900 275.466 274.315 273.444 272.855 272.546 272.518 272.771 273.304 274.118 275.214 276.590 278.250 280.191 282.417 284.927 287.722 290.803 294.172 297.831 301.779 306.020 310.554 315.383 320.510 325.937 331.665 337.698 344.037 350.686 357.647 364.924 372.519 380.436 388.679 397.252 406.158 415.402 424.988 434.921 445.207 455.850 466.856 478.231 489.981 502.114 514.635 527.552 540.874 554.608 568.763 583.349 598.376 613.853 629.793 646.207 663.107 680.508 698.424 716.871 735.864 755.423 775.565 796.313 817.688 839.714 862.418 885.828 909.976 934.896 960.625 987.205 1014.680 1043.103 1072.528 1103.021 1134.652 1167.502 1201.665 1237.245 1274.368 1313.177 1353.843 1396.573 1441.617 1489.282 1539.961 1594.158 1652.548 1716.068 1786.085 1864.744 1955.780 2066.930 2221.298 2500.000 2500.000 2500.000 2500.000 2500.000 2500.000 2500.000 2500.000 2500.000 2500.000 2500.000
2500.000 2500.000 2500.000 2500.000 2500.000 2500.000 2500.000 2500.000 2500.000 2500.000 2500.000 2500.000 2170.910 2033.980 1930.088 1843.361 1767.675 1699.891 1638.142 1581.210 1528.249 1478.641 1431.918 1387.716 1345.747 1305.774 1267.604 1231.073 1196.044 1162.400 1130.036 1098.867 1068.812 1039.803 1011.780 984.687 958.475 933.100 908.523 884.706 861.617 839.225 817.502 796.423 775.964 756.104 736.821 718.098 699.917 682.261 665.116 648.467 632.301 616.605 601.369 586.580 572.229 558.306 544.802 531.708 519.015 506.718 494.807 483.276 472.119 461.330 450.903 440.831 431.111 421.738 412.705 404.010 395.647 387.614 379.906 372.519 365.451 358.698 352.257 346.126 340.301 334.781 329.562 324.644 320.023 315.698 311.667 307.929 304.482 301.324 298.455 295.873 293.578 291.567 289.842 288.400 287.242 286.366 285.773 285.463 285.435 285.689 286.225 287.044 288.146 289.531 291.199 293.153 295.391 297.916 300.727 303.827 307.216 310.896 314.868 319.134 323.696 328.555 333.713 339.173 344.936 351.006 357.385 364.075 371.080 378.403 386.046 394.014 402.311 410.939 419.904 429.209 438.860 448.860 459.216 469.932 481.015 492.470 504.305 516.525 529.137 542.150 555.572 569.411 583.675 598.376 613.522 629.125 645.195 661.747 678.792 696.344 714.419 733.032 752.201 771.945 792.282 813.235 834.827 857.083 880.031 903.700 928.122 953.334 979.375 1006.288 1034.121 1062.928 1092.769 1123.710 1155.827 1189.208 1223.951 1260.171 1298.002 1337.599 1379.152 1422.886 1469.078 1518.076 1570.323 1626.401 1687.104 1753.558 1827.468 1911.634 2011.328 2139.202 2357.522 2500.000 2500.000 2500.000 2500.000 2500.000 2500.000 2500.000 2500.000 2500.000 2500.000 2500.000
2500.000 2500.000 2500.000 2500.000 2500.000 2500.000 2500.000 2500.000 2500.000 2500.000 2500.000 2500.000 2277.121 2101.817 1984.078 1889.631 1808.860 1737.406 1672.851 1613.687 1558.897 1507.755 1459.724 1414.390 1371.428 1330.577 1291.623 1254.388 1218.721 1184.496 1151.603 1119.946 1089.442 1060.017 1031.608 1004.156 977.609 951.921 927.049 902.956 879.607 856.969 835.015 813.717 793.051 772.994 753.525 734.625 716.275 698.459 681.161 664.367 648.062 632.234 616.871 601.962 587.495 573.462 559.852 546.657 533.868 521.478 509.479 497.864 486.626 475.759 465.258 455.116 445.328 435.890 426.796 418.042 409.623 401.536 393.777 386.342 379.228 372.431 365.949 359.778 353.916 348.361 343.110 338.160 333.511 329.159 325.103 321.342 317.874 314.697 311.810 309.212 306.903 304.880 303.144 301.694 300.528 299.648 299.051 298.739 298.711 298.966 299.506 300.330 301.438 302.831 304.510 306.475 308.728 311.267 314.096 317.215 320.625 324.328 328.324 332.617 337.207 342.096 347.287 352.781 358.581 364.690 371.109 377.843 384.894 392.264 399.958 407.979 416.331 425.018 434.044 443.413 453.130 463.201 473.630 484.423 495.586 507.125 519.047 531.358 544.067 557.180 570.706 584.654 599.033 613.853 629.125 644.859 661.067 677.762 694.958 712.670 730.911 749.700 769.054 788.992 809.534 830.704 852.525 875.023 898.228 922.169 946.882 972.404 998.776 1026.043 1054.256 1083.473 1113.755 1145.175 1177.814 1211.765 1247.133 1284.044 1322.641 1363.096 1405.617 1450.453 1497.915 1548.396 1602.406 1660.625 1724.001 1793.919 1872.565 1963.763 2075.530 2232.512 2500.000 2500.000 2500.000 2500.000 2500.000 2500.000 2500.000 2500.000 2500.000 2500.000 2500.000 2500.000
2500.000 2500.000 2500.000 2500.000 2500.000 2500.000 2500.000 2500.000 2500.000 2500.000 2500.000 2500.000 2500.000 2185.874 2045.797 1940.827 1853.625 1777.729 1709.873 1648.134 1591.265 1538.400 1488.911 1442.326 1398.274 1356.464 1316.657 1278.659 1242.304 1207.454 1173.991 1141.812 1110.828 1080.960 1052.140 1024.305 997.402 971.381 946.198 921.813 898.189 875.292 853.094 831.565 810.681 790.417 770.752 751.665 733.138 715.154 697.696 680.749 664.299 648.332 632.836 617.800 603.213 589.064 575.344 562.044 549.154 536.667 524.576 512.873 501.551 490.603 480.025 469.809 459.951 450.445 441.287 432.471 423.994 415.852 408.039 400.554 393.391 386.549 380.024 373.812 367.912 362.320 357.035 352.053 347.374 342.994 338.912 335.127 331.637 328.440 325.535 322.921 320.596 318.561 316.814 315.355 314.182 313.296 312.696 312.381 312.353 312.610 313.153 313.982 315.097 316.499 318.189 320.166 322.433 324.988 327.835 330.974 334.405 338.132 342.154 346.474 351.093 356.014 361.239 366.769 372.607 378.756 385.219 391.997 399.095 406.516 414.263 422.339 430.749 439.496 448.586 458.022 467.809 477.953 488.458 499.331 510.578 522.205 534.218 546.625 559.433 572.651 586.286 600.349 614.847 629.793 645.195 661.067 677.419 694.266 711.621 729.499 747.916 766.889 786.436 806.579 827.337 848.735 870.798 893.552 917.028 941.259 966.279 992.129 1018.852 1046.496 1075.114 1104.767 1135.522 1167.455 1200.654 1235.217 1271.261 1308.919 1348.349 1389.741 1433.323 1479.375 1528.249 1580.394 1636.403 1697.083 1763.590 1837.675 1922.246 2022.847 2153.157 2391.949 2500.000 2500.000 2500.000 2500.000 2500.000 2500.000 2500.000 2500.000 2500.000 2500.000 2500.000 2500.000
2500.000 2500.000 2500.000 2500.000 2500.000 2500.000 2500.000 2500.000 2500.000 2500.000 2500.000 2500.000 2500.000 2306.222 2118.982 1998.452 1902.777 1821.362 1749.550 1684.801 1625.543 1570.726 1519.605 1471.627 1426.373 1383.510 1342.773 1303.944 1266.844 1231.320 1197.243 1164.504 1133.005 1102.663 1073.404 1045.163 1017.882 991.507 965.994 941.299 917.383 894.214 871.757 849.985 828.870 808.388 788.517 769.234 750.521 732.360 714.734 697.627 681.024 664.911 649.277 634.109 619.395 605.125 591.290 577.879 564.884 552.296 540.108 528.313 516.903 505.871 495.212 484.919 474.988 465.412 456.186 447.307 438.769 430.568 422.700 415.162 407.950 401.060 394.489 388.235 382.295 376.665 371.344 366.329 361.619 357.210 353.101 349.291 345.777 342.559 339.635 337.004 334.665 332.617 330.858 329.389 328.209 327.317 326.713 326.397 326.368 326.627 327.173 328.008 329.130 330.542 332.242 334.232 336.513 339.086 341.951 345.110 348.564 352.315 356.364 360.713 365.363 370.317 375.577 381.144 387.022 393.213 399.720 406.546 413.693 421.166 428.968 437.102 445.572 454.383 463.539 473.044 482.904 493.124 503.710 514.666 526.000 537.718 549.827 562.334 575.247 588.574 602.324 616.506 631.130 646.207 661.747 677.762 694.266 711.271 728.793 746.846 765.447 784.614 804.366 824.724 845.710 867.349 889.666 912.691 936.454 960.991 986.337 1012.536 1039.632 1067.677 1096.727 1126.847 1158.108 1190.592 1224.392 1259.617 1296.391 1334.860 1375.200 1417.618 1462.370 1509.773 1560.226 1614.252 1672.549 1736.096 1806.332 1885.549 1977.817 2091.895 2256.741 2500.000 2500.000 2500.000 2500.000 2500.000 2500.000 2500.000 2500.000 2500.000 2500.000 2500.000 2500.000 2500.000
2500.000 2500.000 2500.000 2500.000 2500.000 2500.000 2500.000 2500.000 2500.000 2500.000 2500.000 2500.000 2500.000 2500.000 2212.250 2065.057 1957.506 1868.989 1792.328 1724.001 1661.967 1604.916 1551.949 1502.415 1455.826 1411.802 1370.044 1330.310 1292.399 1256.145 1221.407 1188.064 1156.013 1125.164 1095.436 1066.761 1039.076 1012.326 986.461 961.437 937.214 913.754 891.025 868.996 847.638 826.926 806.837 787.349 768.440 750.093 732.290 715.014 698.251 681.986 666.206 650.899 636.053 621.656 607.700 594.173 581.068 568.375 556.086 544.195 532.692 521.573 510.829 500.456 490.448 480.798 471.503 462.557 453.955 445.694 437.768 430.175 422.911 415.971 409.354 403.056 397.073 391.405 386.046 380.997 376.253 371.814 367.677 363.841 360.304 357.064 354.120 351.471 349.116 347.054 345.284 343.805 342.617 341.719 341.111 340.793 340.764 341.025 341.575 342.415 343.545 344.965 346.677 348.681 350.977 353.567 356.452 359.632 363.110 366.886 370.963 375.341 380.024 385.012 390.308 395.915 401.834 408.069 414.622 421.497 428.696 436.223 444.082 452.276 460.809 469.686 478.911 488.489 498.426 508.725 519.394 530.438 541.863 553.677 565.885 578.497 591.519 604.960 618.830 633.138 647.893 663.107 678.792 694.958 711.621 728.793 746.489 764.726 783.521 802.892 822.860 843.445 864.671 886.564 909.151 932.462 956.530 981.390 1007.083 1033.652 1061.146 1089.619 1119.131 1149.750 1181.554 1214.630 1249.080 1285.021 1322.588 1361.943 1403.278 1446.826 1492.875 1541.786 1594.020 1650.191 1711.140 1778.075 1852.852 1938.595 2041.415 2177.239 2500.000 2500.000 2500.000 2500.000 2500.000 2500.000 2500.000 2500.000 2500.000 2500.000 2500.000 2500.000 2500.000 2500.000
2500.000 2500.000 2500.000 2500.000 2500.000 2500.000 2500.000 2500.000 2500.000 2500.000 2500.000 2500.000 2500.000 2500.000 2361.526 2145.670 2019.714 1921.597 1838.808 1766.140 1700.829 1641.193 1586.121 1534.832 1486.750 1441.440 1398.558 1357.831 1319.036 1281.989 1246.535 1212.541 1179.896 1148.501 1118.271 1089.131 1061.016 1033.866 1007.628 982.255 957.705 933.938 910.920 888.619 867.004 846.050 825.732 806.025 786.911 768.368 750.379 732.926 715.995 699.570 683.637 668.184 653.199 638.670 624.587 610.939 597.718 584.915 572.521 560.528 548.930 537.718 526.887 516.430 506.341 496.615 487.247 478.231 469.563 461.238 453.253 445.602 438.283 431.293 424.627 418.282 412.256 406.546 401.149 396.063 391.286 386.815 382.649 378.786 375.224 371.961 368.997 366.329 363.958 361.882 360.099 358.610 357.414 356.510 355.898 355.577 355.548 355.810 356.364 357.210 358.348 359.778 361.502 363.519 365.832 368.440 371.344 374.547 378.049 381.852 385.958 390.367 395.083 400.107 405.442 411.089 417.051 423.332 429.934 436.859 444.112 451.696 459.614 467.871 476.470 485.416 494.713 504.367 514.383 524.766 535.522 546.657 558.177 570.091 582.404 595.125 608.261 621.823 635.818 650.257 665.150 680.508 696.344 712.670 729.499 746.846 764.726 783.157 802.156 821.742 841.936 862.761 884.242 906.403 929.276 952.890 977.280 1002.485 1028.547 1055.510 1083.428 1112.358 1142.364 1173.520 1205.908 1239.623 1274.776 1311.493 1349.924 1390.248 1432.679 1477.479 1524.974 1575.581 1629.842 1688.489 1752.554 1823.576 1904.034 1998.452 2117.018 2298.630 2500.000 2500.000 2500.000 2500.000 2500.000 2500.000 2500.000 2500.000 2500.000 2500.000 2500.000 2500.000 2500.000 2500.000
2500.000 2500.000 2500.000 2500.000 2500.000 2500.000 2500.000 2500.000 2500.000 2500.000 2500.000 2500.000 2500.000 2500.000 2500.000 2253.677 2092.814 1980.698 1889.836 1811.760 1742.504 1679.832 1622.333 1569.046 1519.286 1472.540 1428.412 1386.593 1346.830 1308.919 1272.686 1237.988 1204.701 1172.719 1141.950 1112.313 1083.737 1056.160 1029.524 1003.780 978.882 954.790 931.466 908.876 886.990 865.780 845.219 825.284 805.952 787.203 769.018 751.379 734.271 717.677 701.584 685.978 670.847 656.179 641.963 628.189 614.847 601.929 589.424 577.326 565.627 554.319 543.396 532.851 522.679 512.873 503.428 494.339 485.602 477.211 469.163 461.453 454.077 447.033 440.316 433.923 427.851 422.098 416.661 411.538 406.725 402.221 398.025 394.133 390.545 387.259 384.273 381.587 379.198 377.107 375.312 373.812 372.607 371.697 371.080 370.757 370.728 370.992 371.550 372.402 373.548 374.988 376.724 378.756 381.085 383.712 386.638 389.864 393.391 397.222 401.358 405.800 410.550 415.612 420.986 426.675 432.683 439.011 445.663 452.642 459.951 467.594 475.574 483.896 492.564 501.582 510.955 520.688 530.787 541.257 552.104 563.334 574.955 586.972 599.395 612.230 625.487 639.174 653.300 667.877 682.914 698.424 714.419 730.911 747.916 765.447 783.521 802.156 821.370 841.183 861.617 882.695 904.444 926.890 950.065 974.000 998.734 1024.305 1050.759 1078.144 1106.515 1135.934 1166.471 1198.203 1231.221 1265.628 1301.543 1339.106 1378.483 1419.873 1463.516 1509.710 1558.831 1611.363 1667.954 1729.497 1797.291 1873.362 1961.205 2067.941 2213.993 2500.000 2500.000 2500.000 2500.000 2500.000 2500.000 2500.000 2500.000 2500.000 2500.000 2500.000 2500.000 2500.000 2500.000 2500.000
2500.000 2500.000 2500.000 2500.000 2500.000 2500.000 2500.000 2500.000 2500.000 2500.000 2500.000 2500.000 2500.000 2500.000 2500.000 2500.000 2184.287 2048.835 1946.669 1861.604 1787.487 1721.187 1660.849 1605.265 1553.599 1505.239 1459.724 1416.695 1375.867 1337.008 1299.927 1264.464 1230.482 1197.867 1166.518 1136.347 1107.278 1079.243 1052.183 1026.043 1000.775 976.337 952.688 929.793 907.620 886.138 865.321 845.143 825.582 806.616 788.225 770.390 753.096 736.325 720.063 704.297 689.013 674.199 659.844 645.937 632.468 619.428 606.808 594.600 582.795 571.387 560.367 549.731 539.471 529.581 520.057 510.892 502.082 493.623 485.509 477.736 470.302 463.201 456.431 449.988 443.869 438.071 432.592 427.429 422.580 418.042 413.813 409.892 406.277 402.966 399.958 397.252 394.846 392.739 390.930 389.420 388.206 387.288 386.667 386.342 386.312 386.579 387.141 387.999 389.153 390.604 392.353 394.400 396.747 399.393 402.341 405.591 409.145 413.005 417.171 421.647 426.434 431.534 436.950 442.684 448.738 455.116 461.821 468.855 476.223 483.927 491.972 500.363 509.102 518.195 527.647 537.463 547.649 558.210 569.152 580.482 592.207 604.334 616.871 629.826 643.208 657.027 671.291 686.013 701.202 716.871 733.032 749.700 766.889 784.614 802.892 821.742 841.183 861.235 881.922 903.269 925.302 948.050 971.545 995.823 1020.921 1046.883 1073.755 1101.590 1130.447 1160.392 1191.499 1223.854 1257.553 1292.710 1329.455 1367.944 1408.361 1450.929 1495.921 1543.679 1594.641 1649.383 1708.688 1773.674 1846.031 1928.554 2026.529 2152.797 2374.800 2500.000 2500.000 2500.000 2500.000 2500.000 2500.000 2500.000 2500.000 2500.000 2500.000 2500.000 2500.000 2500.000 2500.000 2500.000
2500.000 2500.000 2500.000 2500.000 2500.000 2500.000 2500.000 2500.000 2500.000 2500.000 2500.000 2500.000 2500.000 2500.000 2500.000 2500.000 2320.278 2130.981 2011.328 1916.755 1836.449 1765.715 1702.003 1643.744 1589.890 1539.701 1492.627 1448.251 1406.245 1366.344 1328.334 1292.037 1257.301 1224.000 1192.024 1161.279 1131.680 1103.155 1075.641 1049.078 1023.416 998.609 974.615 951.396 928.918 907.149 886.061 865.627 845.823 826.628 808.019 789.978 772.487 755.530 739.091 723.156 707.711 692.744 678.243 664.196 650.595 637.428 624.687 612.363 600.447 588.934 577.814 567.081 556.730 546.753 537.145 527.901 519.015 510.484 502.301 494.464 486.967 479.808 472.982 466.487 460.319 454.474 448.951 443.747 438.860 434.286 430.024 426.073 422.429 419.093 416.061 413.334 410.909 408.786 406.964 405.442 404.219 403.294 402.668 402.341 402.311 402.579 403.145 404.010 405.173 406.635 408.398 410.461 412.825 415.492 418.462 421.738 425.319 429.209 433.409 437.920 442.745 447.885 453.344 459.124 465.227 471.657 478.416 485.509 492.937 500.706 508.819 517.281 526.095 535.267 544.802 554.704 564.981 575.636 586.678 598.113 609.947 622.189 634.846 647.927 661.441 675.397 689.807 704.680 720.028 735.864 752.201 769.054 786.436 804.366 822.860 841.936 861.617 881.922 902.878 924.508 946.842 969.910 993.746 1018.388 1043.875 1070.254 1097.573 1125.891 1155.270 1185.780 1217.502 1250.530 1284.969 1320.943 1358.597 1398.104 1439.670 1483.548 1530.052 1579.579 1632.648 1689.954 1752.471 1821.638 1899.750 1990.908 2104.020 2269.403 2500.000 2500.000 2500.000 2500.000 2500.000 2500.000 2500.000 2500.000 2500.000 2500.000 2500.000 2500.000 2500.000 2500.000 2500.000 2500.000
2500.000 2500.000 2500.000 2500.000 2500.000 2500.000 2500.000 2500.000 2500.000 2500.000 2500.000 2500.000 2500.000 2500.000 2500.000 2500.000 2500.000 2240.096 2087.477 1978.895 1890.349 1814.034 1746.226 1684.801 1628.407 1576.122 1527.285 1481.398 1438.080 1397.027 1357.995 1320.784 1285.226 1251.181 1218.526 1187.160 1156.990 1127.939 1099.938 1072.923 1046.840 1021.639 997.277 973.714 950.912 928.838 907.463 886.758 866.698 847.260 828.421 810.163 792.465 775.312 758.686 742.573 726.959 711.831 697.176 682.983 669.242 655.942 643.074 630.628 618.598 606.973 595.748 584.915 574.468 564.399 554.704 545.377 536.413 527.806 519.552 511.646 504.085 496.865 489.981 483.431 477.211 471.318 465.750 460.503 455.575 450.964 446.667 442.684 439.011 435.648 432.592 429.843 427.399 425.259 423.422 421.888 420.655 419.724 419.093 418.762 418.732 419.003 419.573 420.445 421.617 423.091 424.867 426.947 429.330 432.018 435.012 438.314 441.924 445.846 450.079 454.627 459.491 464.674 470.179 476.006 482.161 488.645 495.461 502.614 510.107 517.943 526.127 534.663 543.556 552.810 562.431 572.424 582.795 593.550 604.697 616.240 628.189 640.551 653.334 666.547 680.199 694.301 708.862 723.895 739.411 755.423 771.945 788.992 806.579 824.724 843.445 862.761 882.695 903.269 924.508 946.440 969.093 992.502 1016.701 1041.730 1067.633 1094.457 1122.257 1151.093 1181.033 1212.153 1244.542 1278.300 1313.545 1350.413 1389.066 1429.696 1472.540 1517.885 1566.097 1617.645 1673.154 1733.482 1799.875 1874.260 1959.931 2063.480 2203.057 2500.000 2500.000 2500.000 2500.000 2500.000 2500.000 2500.000 2500.000 2500.000 2500.000 2500.000 2500.000 2500.000 2500.000 2500.000 2500.000 2500.000
2500.000 2500.000 2500.000 2500.000 2500.000 2500.000 2500.000 2500.000 2500.000 2500.000 2500.000 2500.000 2500.000 2500.000 2500.000 2500.000 2500.000 2500.000 2183.298 2050.917 1950.637 1867.011 1794.096 1728.848 1669.458 1614.746 1563.891 1516.295 1471.506 1429.171 1389.009 1350.794 1314.336 1279.478 1246.086 1214.047 1183.262 1153.644 1125.118 1097.618 1071.084 1045.464 1020.710 996.778 973.632 951.234 929.554 908.562 888.231 868.536 849.455 830.966 813.050 795.689 778.867 762.567 746.774 731.477 716.660 702.314 688.426 674.986 661.985 649.412 637.260 625.520 614.185 603.246 592.698 582.534 572.748 563.334 554.287 545.601 537.272 529.296 521.667 514.383 507.439 500.831 494.557 488.614 482.997 477.706 472.736 468.086 463.753 459.737 456.033 452.642 449.561 446.789 444.325 442.167 440.316 438.769 437.526 436.587 435.951 435.618 435.587 435.860 436.435 437.314 438.496 439.982 441.773 443.869 446.272 448.982 452.001 455.330 458.971 462.925 467.194 471.780 476.686 481.913 487.464 493.342 499.550 506.091 512.967 520.183 527.742 535.649 543.907 552.521 561.495 570.836 580.547 590.635 601.106 611.965 623.221 634.879 646.948 659.436 672.351 685.703 699.500 713.754 728.475 743.676 759.368 775.565 792.282 809.534 827.337 845.710 864.671 884.242 904.444 925.302 946.842 969.093 992.088 1015.859 1040.445 1065.889 1092.236 1119.538 1147.854 1177.247 1207.793 1239.573 1272.686 1307.241 1343.367 1381.217 1420.973 1462.852 1507.125 1554.127 1604.288 1658.172 1716.546 1780.504 1851.694 1932.836 2029.044 2152.617 2364.722 2500.000 2500.000 2500.000 2500.000 2500.000 2500.000 2500.000 2500.000 2500.000 2500.000 2500.000 2500.000 2500.000 2500.000 2500.000 2500.000 2500.000
2500.000 2500.000 2500.000 2500.000 2500.000 2500.000 2500.000 2500.000 2500.000 2500.000 2500.000 2500.000 2500.000 2500.000 2500.000 2500.000 2500.000 2500.000 2329.193 2138.683 2019.714 1925.936 1846.414 1776.432 1713.441 1655.873 1602.685 1553.137 1506.685 1462.913 1421.494 1382.167 1344.719 1308.971 1274.776 1242.006 1210.552 1180.322 1151.232 1123.210 1096.193 1070.122 1044.948 1020.625 997.111 974.369 952.365 931.067 910.448 890.481 871.143 852.411 834.264 816.685 799.654 783.157 767.177 751.701 736.715 722.206 708.164 694.578 681.436 668.730 656.450 644.589 633.138 622.089 611.436 601.171 591.290 581.785 572.651 563.883 555.476 547.425 539.726 532.375 525.367 518.700 512.370 506.373 500.706 495.368 490.355 485.664 481.294 477.242 473.507 470.086 466.979 464.183 461.698 459.522 457.655 456.094 454.841 453.894 453.253 452.917 452.886 453.161 453.741 454.627 455.819 457.318 459.124 461.238 463.661 466.395 469.440 472.797 476.470 480.458 484.764 489.391 494.339 499.613 505.213 511.144 517.407 524.007 530.946 538.228 545.857 553.837 562.173 570.868 579.928 589.359 599.165 609.352 619.927 630.896 642.266 654.045 666.240 678.860 691.914 705.411 719.361 733.775 748.665 764.042 779.920 796.313 813.235 830.704 848.735 867.349 886.564 906.403 926.890 948.050 969.910 992.502 1015.859 1040.017 1065.017 1090.905 1117.728 1145.544 1174.415 1204.411 1235.613 1268.111 1302.012 1337.438 1374.533 1413.469 1454.450 1497.728 1543.614 1592.503 1644.912 1701.533 1763.335 1831.756 1909.090 1999.450 2111.831 2277.402 2500.000 2500.000 2500.000 2500.000 2500.000 2500.000 2500.000 2500.000 2500.000 2500.000 2500.000 2500.000 2500.000 2500.000 2500.000 2500.000 2500.000 2500.000
2500.000 2500.000 2500.000 2500.000 2500.000 2500.000 2500.000 2500.000 2500.000 2500.000 2500.000 2500.000 2500.000 2500.000 2500.000 2500.000 2500.000 2500.000 2500.000 2258.805 2102.131 1992.876 1904.349 1828.304 1760.879 1699.891 1643.963 1592.159 1543.810 1498.414 1455.586 1415.023 1376.479 1339.752 1304.676 1271.108 1238.929 1208.034 1178.334 1149.750 1122.212 1095.659 1070.035 1045.292 1021.386 998.276 975.927 954.304 933.379 913.124 893.513 874.523 856.133 838.322 821.072 804.366 788.188 772.523 757.358 742.680 728.475 714.734 701.445 688.599 676.185 664.196 652.623 641.459 630.695 620.326 610.344 600.744 591.519 582.665 574.175 566.047 558.274 550.853 543.779 537.049 530.660 524.608 518.889 513.502 508.443 503.710 499.300 495.212 491.443 487.992 484.857 482.037 479.530 477.335 475.451 473.877 472.613 471.657 471.010 470.671 470.641 470.918 471.503 472.397 473.599 475.111 476.933 479.066 481.510 484.268 487.340 490.728 494.433 498.457 502.802 507.470 512.464 517.785 523.437 529.423 535.744 542.406 549.410 556.762 564.464 572.521 580.938 589.719 598.869 608.394 618.299 628.590 639.274 650.358 661.849 673.754 686.082 698.841 712.040 725.690 739.801 754.384 769.451 785.015 801.089 817.688 834.827 852.525 870.798 889.666 909.151 929.276 950.065 971.545 993.746 1016.701 1040.445 1065.017 1090.461 1116.824 1144.161 1172.531 1202.002 1232.650 1264.565 1297.846 1332.610 1368.994 1407.160 1447.301 1489.654 1534.508 1582.231 1633.297 1688.335 1748.219 1814.216 1888.302 1973.882 2077.892 2220.179 2500.000 2500.000 2500.000 2500.000 2500.000 2500.000 2500.000 2500.000 2500.000 2500.000 2500.000 2500.000 2500.000 2500.000 2500.000 2500.000 2500.000 2500.000 2500.000
2500.000 2500.000 2500.000 2500.000 2500.000 2500.000 2500.000 2500.000 2500.000 2500.000 2500.000 2500.000 2500.000 2500.000 2500.000 2500.000 2500.000 2500.000 2500.000 2500.000 2209.010 2071.573 1969.741 1885.549 1812.486 1747.305 1688.104 1633.657 1583.117 1535.868 1491.449 1449.500 1409.736 1371.926 1335.880 1301.438 1268.466 1236.849 1206.487 1177.294 1149.195 1122.121 1096.015 1070.822 1046.496 1022.993 1000.275 978.307 957.056 936.494 916.594 897.330 878.681 860.625 843.143 826.217 809.830 793.967 778.612 763.754 749.379 735.475 722.031 709.037 696.483 684.360 672.659 661.373 650.493 640.013 629.926 620.226 610.906 601.962 593.387 585.176 577.326 569.832 562.689 555.893 549.442 543.332 537.559 532.120 527.014 522.236 517.785 513.659 509.856 506.373 503.209 500.363 497.832 495.617 493.716 492.128 490.852 489.888 489.235 488.893 488.862 489.142 489.733 490.634 491.848 493.373 495.212 497.364 499.831 502.614 505.714 509.133 512.873 516.934 521.320 526.032 531.073 536.445 542.150 548.193 554.576 561.302 568.375 575.799 583.578 591.715 600.217 609.088 618.332 627.956 637.965 648.366 659.165 670.369 681.986 694.024 706.491 719.396 732.749 746.561 760.841 775.602 790.855 806.616 822.897 839.714 857.083 875.023 893.552 912.691 932.462 952.890 974.000 995.823 1018.388 1041.730 1065.889 1090.905 1116.824 1143.700 1171.589 1200.558 1230.679 1262.038 1294.730 1328.868 1364.582 1402.025 1441.381 1482.872 1526.771 1573.420 1623.259 1676.866 1735.033 1798.894 1870.179 1951.776 2049.251 2176.658 2431.626 2500.000 2500.000 2500.000 2500.000 2500.000 2500.000 2500.000 2500.000 2500.000 2500.000 2500.000 2500.000 2500.000 2500.000 2500.000 2500.000 2500.000 2500.000 2500.000
2500.000 2500.000 2500.000 2500.000 2500.000 2500.000 2500.000 2500.000 2500.000 2500.000 2500.000 2500.000 2500.000 2500.000 2500.000 2500.000 2500.000 2500.000 2500.000 2500.000 2401.005 2170.341 2045.797 1949.841 1869.286 1798.805 1735.605 1678.005 1624.900 1575.514 1529.279 1485.764 1444.633 1405.617 1368.497 1333.092 1299.250 1266.844 1235.761 1205.908 1177.200 1149.565 1122.938 1097.262 1072.485 1048.561 1025.449 1003.112 981.514 960.625 940.417 920.863 901.939 883.623 865.895 848.735 832.127 816.054 800.500 785.452 770.896 756.820 743.213 730.064 717.362 705.097 693.263 681.848 670.847 660.251 650.054 640.249 630.829 621.789 613.124 604.828 596.897 589.326 582.111 575.247 568.731 562.560 556.730 551.238 546.081 541.257 536.763 532.597 528.757 525.241 522.047 519.173 516.619 514.383 512.464 510.861 509.573 508.600 507.941 507.596 507.564 507.847 508.443 509.353 510.578 512.118 513.974 516.146 518.637 521.446 524.576 528.028 531.803 535.904 540.332 545.090 550.180 555.604 561.366 567.469 573.916 580.710 587.855 595.354 603.213 611.436 620.027 628.991 638.334 648.062 658.180 668.696 679.615 690.946 702.696 714.874 727.488 740.547 754.062 768.043 782.502 797.450 812.902 828.870 845.370 862.418 880.031 898.228 917.028 936.454 956.530 977.280 998.734 1020.921 1043.875 1067.633 1092.236 1117.728 1144.161 1171.589 1200.077 1229.695 1260.524 1292.658 1326.203 1361.284 1398.047 1436.668 1477.356 1520.370 1566.030 1614.746 1667.053 1723.679 1785.647 1854.496 1932.726 2024.947 2141.810 2327.736 2500.000 2500.000 2500.000 2500.000 2500.000 2500.000 2500.000 2500.000 2500.000 2500.000 2500.000 2500.000 2500.000 2500.000 2500.000 2500.000 2500.000 2500.000 2500.000 2500.000
2500.000 2500.000 2500.000 2500.000 2500.000 2500.000 2500.000 2500.000 2500.000 2500.000 2500.000 2500.000 2500.000 2500.000 2500.000 2500.000 2500.000 2500.000 2500.000 2500.000 2500.000 2319.584 2139.202 2024.027 1932.836 1855.368 1787.136 1725.694 1669.533 1617.645 1569.315 1524.013 1481.337 1440.967 1402.651 1366.179 1331.379 1298.106 1266.235 1235.662 1206.294 1178.051 1150.861 1124.664 1099.402 1075.026 1051.492 1028.759 1006.790 985.553 965.016 945.153 925.937 907.345 889.356 871.949 855.106 838.811 823.046 807.797 793.051 778.794 765.014 751.701 738.843 726.430 714.454 702.905 691.776 681.058 670.745 660.829 651.305 642.165 633.406 625.020 617.004 609.352 602.060 595.125 588.541 582.306 576.416 570.868 565.659 560.786 556.247 552.040 548.161 544.610 541.384 538.483 535.904 533.646 531.708 530.089 528.788 527.806 527.140 526.792 526.760 527.045 527.647 528.567 529.803 531.358 533.232 535.426 537.941 540.778 543.939 547.425 551.238 555.379 559.852 564.658 569.799 575.279 581.101 587.266 593.780 600.645 607.865 615.444 623.387 631.699 640.383 649.446 658.893 668.730 678.963 689.599 700.646 712.110 724.000 736.325 749.093 762.315 776.000 790.161 804.808 819.955 835.616 851.804 868.536 885.828 903.700 922.169 941.259 960.991 981.390 1002.485 1024.305 1046.883 1070.254 1094.457 1119.538 1145.544 1172.531 1200.558 1229.695 1260.020 1291.623 1324.606 1359.090 1395.215 1433.147 1473.087 1515.279 1560.027 1607.714 1658.840 1714.077 1774.362 1841.080 1916.433 2004.344 2113.283 2271.582 2500.000 2500.000 2500.000 2500.000 2500.000 2500.000 2500.000 2500.000 2500.000 2500.000 2500.000 2500.000 2500.000 2500.000 2500.000 2500.000 2500.000 2500.000 2500.000 2500.000 2500.000
2500.000 2500.000 2500.000 2500.000 2500.000 2500.000 2500.000 2500.000 2500.000 2500.000 2500.000 2500.000 2500.000 2500.000 2500.000 2500.000 2500.000 2500.000 2500.000 2500.000 2500.000 2500.000 2270.218 2113.768 2005.733 1918.472 1843.646 1777.383 1717.504 1662.638 1611.856 1564.492 1520.051 1478.151 1438.492 1400.830 1364.967 1330.737 1298.002 1266.641 1236.552 1207.647 1179.849 1153.087 1127.302 1102.440 1078.452 1055.294 1032.928 1011.318 990.431 970.237 950.710 931.824 913.557 895.888 878.797 862.265 846.277 830.816 815.868 801.420 787.458 773.971 760.949 748.379 736.254 724.563 713.299 702.453 692.018 681.986 672.351 663.107 654.248 645.768 637.663 629.926 622.555 615.544 608.889 602.587 596.635 591.028 585.764 580.840 576.254 572.002 568.084 564.496 561.237 558.306 555.701 553.420 551.462 549.827 548.513 547.521 546.849 546.497 546.465 546.753 547.361 548.289 549.539 551.109 553.002 555.219 557.759 560.625 563.818 567.340 571.192 575.377 579.896 584.752 589.948 595.486 601.369 607.601 614.185 621.124 628.423 636.086 644.117 652.522 661.305 670.471 680.027 689.979 700.333 711.097 722.277 733.881 745.919 758.399 771.330 784.723 798.589 812.939 827.786 843.143 859.025 875.446 892.424 909.976 928.122 946.882 966.279 986.337 1007.083 1028.547 1050.759 1073.755 1097.573 1122.257 1147.854 1174.415 1202.002 1230.679 1260.524 1291.623 1324.075 1357.995 1393.519 1430.806 1470.049 1511.478 1555.384 1602.128 1652.179 1706.164 1764.949 1829.795 1902.673 1986.994 2089.756 2231.346 2500.000 2500.000 2500.000 2500.000 2500.000 2500.000 2500.000 2500.000 2500.000 2500.000 2500.000 2500.000 2500.000 2500.000 2500.000 2500.000 2500.000 2500.000 2500.000 2500.000 2500.000 2500.000
2500.000 2500.000 2500.000 2500.000 2500.000 2500.000 2500.000 2500.000 2500.000 2500.000 2500.000 2500.000 2500.000 2500.000 2500.000 2500.000 2500.000 2500.000 2500.000 2500.000 2500.000 2500.000 2500.000 2234.387 2092.968 1990.540 1906.557 1834.005 1769.469 1710.982 1657.281 1607.504 1561.025 1517.376 1476.196 1437.197 1400.148 1364.857 1331.165 1298.938 1268.060 1238.433 1209.971 1182.597 1156.246 1130.858 1106.381 1082.767 1059.974 1037.964 1016.701 996.155 976.296 957.097 938.534 920.586 903.230 886.448 870.222 854.537 839.375 824.724 810.570 796.900 783.703 770.969 758.686 746.846 735.439 724.458 713.894 703.740 693.989 684.635 675.671 667.092 658.893 651.068 643.612 636.522 629.793 623.421 617.402 611.734 606.412 601.435 596.799 592.502 588.541 584.915 581.622 578.659 576.026 573.721 571.743 570.091 568.763 567.760 567.081 566.726 566.693 566.984 567.599 568.537 569.799 571.387 573.299 575.539 578.106 581.003 584.230 587.789 591.683 595.912 600.480 605.389 610.642 616.240 622.189 628.490 635.147 642.165 649.547 657.298 665.422 673.925 682.811 692.087 701.758 711.831 722.312 733.209 744.530 756.283 768.476 781.120 794.223 807.797 821.854 836.404 851.463 867.043 883.159 899.828 917.068 934.896 953.334 972.404 992.129 1012.536 1033.652 1055.510 1078.144 1101.590 1125.891 1151.093 1177.247 1204.411 1232.650 1262.038 1292.658 1324.606 1357.995 1392.954 1429.638 1468.230 1508.953 1552.081 1597.961 1647.035 1699.891 1757.336 1820.533 1891.272 1972.577 2070.407 2200.542 2500.000 2500.000 2500.000 2500.000 2500.000 2500.000 2500.000 2500.000 2500.000 2500.000 2500.000 2500.000 2500.000 2500.000 2500.000 2500.000 2500.000 2500.000 2500.000 2500.000 2500.000 2500.000 2500.000
2500.000 2500.000 2500.000 2500.000 2500.000 2500.000 2500.000 2500.000 2500.000 2500.000 2500.000 2500.000 2500.000 2500.000 2500.000 2500.000 2500.000 2500.000 2500.000 2500.000 2500.000 2500.000 2500.000 2500.000 2207.084 2076.119 1978.176 1896.945 1826.353 1763.335 1706.086 1653.433 1604.567 1558.897 1515.978 1475.464 1437.079 1400.602 1365.848 1332.663 1300.917 1270.498 1241.310 1213.270 1186.303 1160.345 1135.339 1111.233 1087.980 1065.540 1043.875 1022.951 1002.736 983.202 964.324 946.078 928.440 911.392 894.914 878.990 863.602 848.735 834.377 820.513 807.133 794.223 781.774 769.776 758.219 747.095 736.396 726.113 716.240 706.770 697.696 689.013 680.714 672.796 665.252 658.078 651.271 644.825 638.737 633.004 627.622 622.588 617.900 613.555 609.550 605.884 602.554 599.559 596.897 594.567 592.567 590.897 589.555 588.541 587.855 587.495 587.462 587.757 588.378 589.326 590.602 592.207 594.141 596.405 599.000 601.929 605.191 608.790 612.727 617.004 621.623 626.587 631.899 637.562 643.579 649.953 656.688 663.788 671.257 679.101 687.322 695.928 704.923 714.314 724.106 734.306 744.922 755.960 767.430 779.339 791.697 804.513 817.799 831.565 845.823 860.587 875.869 891.686 908.052 924.984 942.502 960.625 979.375 998.776 1018.852 1039.632 1061.146 1083.428 1106.515 1130.447 1155.270 1181.033 1207.793 1235.613 1264.565 1294.730 1326.203 1359.090 1393.519 1429.638 1467.624 1507.692 1550.105 1595.193 1643.379 1695.217 1751.468 1813.214 1882.100 1960.857 2054.691 2176.465 2401.005 2500.000 2500.000 2500.000 2500.000 2500.000 2500.000 2500.000 2500.000 2500.000 2500.000 2500.000 2500.000 2500.000 2500.000 2500.000 2500.000 2500.000 2500.000 2500.000 2500.000 2500.000 2500.000 2500.000
2500.000 2500.000 2500.000 2500.000 2500.000 2500.000 2500.000 2500.000 2500.000 2500.000 2500.000 2500.000 2500.000 2500.000 2500.000 2500.000 2500.000 2500.000 2500.000 2500.000 2500.000 2500.000 2500.000 2500.000 2431.626 2186.073 2062.764 1968.446 1889.529 1820.625 1758.937 1702.786 1651.074 1603.033 1558.100 1515.851 1475.952 1438.138 1402.195 1367.944 1335.236 1303.944 1273.960 1245.189 1217.551 1190.974 1165.393 1140.754 1117.005 1094.102 1072.003 1050.673 1030.077 1010.185 990.969 972.404 954.466 937.134 920.388 904.209 888.580 873.485 858.910 844.841 831.265 818.171 805.546 793.381 781.665 770.390 759.547 749.129 739.127 729.534 720.344 711.551 703.149 695.132 687.495 680.234 673.343 666.820 660.659 654.858 649.412 644.320 639.577 635.181 631.130 627.422 624.054 621.024 618.332 615.975 613.953 612.263 610.906 609.881 609.187 608.823 608.790 609.088 609.716 610.675 611.965 613.588 615.544 617.834 620.459 623.421 626.721 630.361 634.343 638.670 643.343 648.366 653.740 659.470 665.559 672.009 678.826 686.013 693.574 701.515 709.839 718.554 727.664 737.176 747.095 757.430 768.187 779.375 791.002 803.076 815.608 828.608 842.087 856.057 870.529 885.519 901.039 917.107 933.739 950.952 968.767 987.205 1006.288 1026.043 1046.496 1067.677 1089.619 1112.358 1135.934 1160.392 1185.780 1212.153 1239.573 1268.111 1297.846 1328.868 1361.284 1395.215 1430.806 1468.230 1507.692 1549.448 1593.813 1641.193 1692.117 1747.305 1807.775 1875.060 1951.662 2042.234 2157.692 2346.540 2500.000 2500.000 2500.000 2500.000 2500.000 2500.000 2500.000 2500.000 2500.000 2500.000 2500.000 2500.000 2500.000 2500.000 2500.000 2500.000 2500.000 2500.000 2500.000 2500.000 2500.000 2500.000 2500.000 2500.000
2500.000 2500.000 2500.000 2500.000 2500.000 2500.000 2500.000 2500.000 2500.000 2500.000 2500.000 2500.000 2500.000 2500.000 2500.000 2500.000 2500.000 2500.000 2500.000 2500.000 2500.000 2500.000 2500.000 2500.000 2500.000 2372.819 2170.152 2052.591 1961.205 1884.228 1816.772 1756.243 1701.063 1650.191 1602.894 1558.631 1516.994 1477.662 1440.377 1404.932 1371.151 1338.891 1308.027 1278.454 1250.080 1222.825 1196.620 1171.401 1147.114 1123.710 1101.143 1079.375 1058.369 1038.092 1018.514 999.608 981.349 963.714 946.681 930.231 914.346 899.008 884.203 869.916 856.133 842.841 830.030 817.688 805.804 794.370 783.375 772.813 762.674 752.953 743.640 734.731 726.219 718.098 710.363 703.009 696.032 689.427 683.190 677.317 671.804 666.649 661.849 657.400 653.300 649.547 646.139 643.074 640.349 637.965 635.918 634.209 632.836 631.799 631.097 630.729 630.695 630.996 631.632 632.602 633.908 635.550 637.529 639.845 642.502 645.499 648.838 652.522 656.552 660.931 665.661 670.745 676.185 681.986 688.150 694.681 701.584 708.862 716.520 724.563 732.997 741.826 751.057 760.697 770.752 781.229 792.136 803.482 815.274 827.524 840.241 853.435 867.119 881.305 896.005 911.235 927.009 943.345 960.260 977.773 995.906 1014.680 1034.121 1054.256 1075.114 1096.727 1119.131 1142.364 1166.471 1191.499 1217.502 1244.542 1272.686 1302.012 1332.610 1364.582 1398.047 1433.147 1470.049 1508.953 1550.105 1593.813 1640.465 1690.571 1744.818 1804.173 1870.079 1944.865 2032.774 2143.384 2313.452 2500.000 2500.000 2500.000 2500.000 2500.000 2500.000 2500.000 2500.000 2500.000 2500.000 2500.000 2500.000 2500.000 2500.000 2500.000 2500.000 2500.000 2500.000 2500.000 2500.000 2500.000 2500.000 2500.000 2500.000 2500.000
2500.000 2500.000 2500.000 2500.000 2500.000 2500.000 2500.000 2500.000 2500.000 2500.000 2500.000 2500.000 2500.000 2500.000 2500.000 2500.000 2500.000 2500.000 2500.000 2500.000 2500.000 2500.000 2500.000 2500.000 2500.000 2500.000 2341.334 2158.606 2045.385 1956.355 1880.989 1814.763 1755.235 1700.907 1650.780 1604.148 1560.492 1519.413 1480.601 1443.804 1408.819 1375.478 1343.637 1313.177 1283.992 1255.994 1229.105 1203.254 1178.382 1154.433 1131.360 1109.119 1087.670 1066.979 1047.012 1027.740 1009.136 991.176 973.836 957.097 940.938 925.341 910.291 895.771 881.768 868.268 855.258 842.728 830.666 819.063 807.908 797.193 786.911 777.052 767.610 758.578 749.950 741.720 733.881 726.430 719.361 712.670 706.352 700.403 694.820 689.599 684.738 680.234 676.083 672.283 668.832 665.729 662.971 660.557 658.486 656.756 655.366 654.316 653.605 653.233 653.199 653.503 654.147 655.129 656.450 658.112 660.115 662.461 665.150 668.184 671.565 675.295 679.375 683.809 688.599 693.747 699.257 705.132 711.376 717.993 724.986 732.360 740.121 748.272 756.820 765.771 775.130 784.905 795.103 805.730 816.796 828.309 840.279 852.714 865.627 879.028 892.930 907.345 922.288 937.774 953.819 970.441 987.659 1005.493 1023.966 1043.103 1062.928 1083.473 1104.767 1126.847 1149.750 1173.520 1198.203 1223.854 1250.530 1278.300 1307.241 1337.438 1368.994 1402.025 1436.668 1473.087 1511.478 1552.081 1595.193 1641.193 1690.571 1743.991 1802.379 1867.110 1940.380 2026.133 2133.019 2291.314 2500.000 2500.000 2500.000 2500.000 2500.000 2500.000 2500.000 2500.000 2500.000 2500.000 2500.000 2500.000 2500.000 2500.000 2500.000 2500.000 2500.000 2500.000 2500.000 2500.000 2500.000 2500.000 2500.000 2500.000 2500.000 2500.000
2500.000 2500.000 2500.000 2500.000 2500.000 2500.000 2500.000 2500.000 2500.000 2500.000 2500.000 2500.000 2500.000 2500.000 2500.000 2500.000 2500.000 2500.000 2500.000 2500.000 2500.000 2500.000 2500.000 2500.000 2500.000 2500.000 2500.000 2322.025 2151.001 2041.007 1953.832 1879.778 1814.580 1755.907 1702.316 1652.843 1606.803 1563.691 1523.117 1484.778 1448.430 1413.872 1380.938 1349.489 1319.407 1290.589 1262.947 1236.404 1210.892 1186.350 1162.727 1139.972 1118.045 1096.905 1076.518 1056.852 1037.878 1019.569 1001.901 984.852 968.400 952.526 937.214 922.447 908.209 894.486 881.266 868.536 856.285 844.502 833.177 822.301 811.865 801.861 792.282 783.121 774.370 766.023 758.076 750.521 743.355 736.573 730.169 724.141 718.484 713.194 708.269 703.705 699.500 695.651 692.156 689.013 686.219 683.775 681.677 679.924 678.517 677.454 676.734 676.357 676.322 676.631 677.282 678.277 679.615 681.299 683.327 685.703 688.426 691.499 694.924 698.702 702.836 707.327 712.180 717.397 722.980 728.934 735.262 741.968 749.057 756.534 764.402 772.668 781.338 790.417 799.912 809.830 820.179 830.966 842.200 853.891 866.048 878.681 891.802 905.423 919.557 934.217 949.419 965.179 981.514 998.443 1015.985 1034.164 1053.003 1072.528 1092.769 1113.755 1135.522 1158.108 1181.554 1205.908 1231.221 1257.553 1284.969 1313.545 1343.367 1374.533 1407.160 1441.381 1477.356 1515.279 1555.384 1597.961 1643.379 1692.117 1744.818 1802.379 1866.123 1938.150 2022.193 2126.269 2276.841 2500.000 2500.000 2500.000 2500.000 2500.000 2500.000 2500.000 2500.000 2500.000 2500.000 2500.000 2500.000 2500.000 2500.000 2500.000 2500.000 2500.000 2500.000 2500.000 2500.000 2500.000 2500.000 2500.000 2500.000 2500.000 2500.000 2500.000
2500.000 2500.000 2500.000 2500.000 2500.000 2500.000 2500.000 2500.000 2500.000 2500.000 2500.000 2500.000 2500.000 2500.000 2500.000 2500.000 2500.000 2500.000 2500.000 2500.000 2500.000 2500.000 2500.000 2500.000 2500.000 2500.000 2500.000 2500.000 2311.122 2147.083 2039.375 1953.603 1880.585 1816.224 1758.262 1705.299 1656.392 1610.871 1568.241 1528.120 1490.210 1454.271 1420.104 1387.548 1356.464 1326.735 1298.262 1270.956 1244.741 1219.551 1195.326 1172.013 1149.565 1127.939 1107.098 1087.007 1067.633 1048.949 1030.927 1013.544 996.778 980.609 965.016 949.984 935.495 921.536 908.091 895.148 882.695 870.721 859.215 848.168 837.570 827.412 817.688 808.388 799.507 791.038 782.975 775.312 768.043 761.164 754.671 748.558 742.822 737.459 732.466 727.840 723.578 719.677 716.135 712.949 710.119 707.641 705.515 703.740 702.314 701.237 700.507 700.125 700.090 700.403 701.063 702.071 703.427 705.132 707.188 709.595 712.355 715.469 718.940 722.769 726.959 731.512 736.431 741.720 747.381 753.418 759.835 766.636 773.826 781.410 789.393 797.781 806.579 815.794 825.433 835.503 846.012 856.969 868.383 880.262 892.619 905.462 918.806 932.661 947.043 961.966 977.445 993.497 1010.143 1027.400 1045.292 1063.842 1083.076 1103.021 1123.710 1145.175 1167.455 1190.592 1214.630 1239.623 1265.628 1292.710 1320.943 1350.413 1381.217 1413.469 1447.301 1482.872 1520.370 1560.027 1602.128 1647.035 1695.217 1747.305 1804.173 1867.110 1938.150 2020.886 2122.939 2268.591 2500.000 2500.000 2500.000 2500.000 2500.000 2500.000 2500.000 2500.000 2500.000 2500.000 2500.000 2500.000 2500.000 2500.000 2500.000 2500.000 2500.000 2500.000 2500.000 2500.000 2500.000 2500.000 2500.000 2500.000 2500.000 2500.000 2500.000 2500.000
2500.000 2500.000 2500.000 2500.000 2500.000 2500.000 2500.000 2500.000 2500.000 2500.000 2500.000 2500.000 2500.000 2500.000 2500.000 2500.000 2500.000 2500.000 2500.000 2500.000 2500.000 2500.000 2500.000 2500.000 2500.000 2500.000 2500.000 2500.000 2500.000 2307.192 2146.729 2040.462 1955.666 1883.417 1819.706 1762.318 1709.873 1661.445 1616.371 1574.163 1534.443 1496.917 1461.347 1427.538 1395.328 1364.582 1335.182 1307.031 1280.041 1254.137 1229.252 1205.328 1182.313 1160.159 1138.824 1118.271 1098.465 1079.375 1060.973 1043.231 1026.128 1009.639 993.746 978.430 963.673 949.460 935.775 922.605 909.937 897.759 886.061 874.831 864.060 853.739 843.860 834.414 825.396 816.796 808.610 800.831 793.454 786.473 779.884 773.682 767.863 762.423 757.358 752.666 748.344 744.388 740.796 737.566 734.695 732.184 730.028 728.228 726.783 725.690 724.951 724.563 724.528 724.845 725.514 726.536 727.911 729.640 731.724 734.164 736.963 740.121 743.640 747.523 751.772 756.390 761.380 766.744 772.487 778.612 785.124 792.026 799.324 807.022 815.126 823.642 832.577 841.936 851.728 861.960 872.640 883.778 895.382 907.463 920.032 933.100 946.681 960.788 975.435 990.638 1006.414 1022.781 1039.760 1057.372 1075.641 1094.591 1114.251 1134.652 1155.827 1177.814 1200.654 1224.392 1249.080 1274.776 1301.543 1329.455 1358.597 1389.066 1420.973 1454.450 1489.654 1526.771 1566.030 1607.714 1652.179 1699.891 1751.468 1807.775 1870.079 1940.380 2022.193 2122.939 2265.906 2500.000 2500.000 2500.000 2500.000 2500.000 2500.000 2500.000 2500.000 2500.000 2500.000 2500.000 2500.000 2500.000 2500.000 2500.000 2500.000 2500.000 2500.000 2500.000 2500.000 2500.000 2500.000 2500.000 2500.000 2500.000 2500.000 2500.000 2500.000 2500.000
2500.000 2500.000 2500.000 2500.000 2500.000 2500.000 2500.000 2500.000 2500.000 2500.000 2500.000 2500.000 2500.000 2500.000 2500.000 2500.000 2500.000 2500.000 2500.000 2500.000 2500.000 2500.000 2500.000 2500.000 2500.000 2500.000 2500.000 2500.000 2500.000 2500.000 2309.803 2149.928 2044.286 1960.046 1888.302 1825.056 1768.102 1716.068 1668.029 1623.330 1581.482 1542.112 1504.925 1469.685 1436.198 1404.304 1373.867 1344.773 1316.921 1290.227 1264.615 1240.020 1216.382 1193.650 1171.777 1150.722 1130.447 1110.918 1092.103 1073.974 1056.506 1039.675 1023.458 1007.837 992.792 978.307 964.365 950.952 938.054 925.659 913.754 902.330 891.375 880.880 870.836 861.235 852.069 843.332 835.015 827.113 819.621 812.531 805.841 799.544 793.637 788.115 782.975 778.213 773.826 769.812 766.168 762.890 759.978 757.430 755.244 753.418 751.951 750.843 750.093 749.700 749.664 749.986 750.664 751.701 753.096 754.850 756.964 759.440 762.279 765.483 769.054 772.994 777.306 781.992 787.057 792.502 798.332 804.550 811.162 818.171 825.582 833.402 841.635 850.288 859.367 868.881 878.835 889.239 900.102 911.431 923.239 935.535 948.332 961.641 975.475 989.851 1004.783 1020.287 1036.383 1053.089 1070.428 1088.423 1107.098 1126.483 1146.606 1167.502 1189.208 1211.765 1235.217 1259.617 1285.021 1311.493 1339.106 1367.944 1398.104 1429.696 1462.852 1497.728 1534.508 1573.420 1614.746 1658.840 1706.164 1757.336 1813.214 1875.060 1944.865 2026.133 2126.269 2268.591 2500.000 2500.000 2500.000 2500.000 2500.000 2500.000 2500.000 2500.000 2500.000 2500.000 2500.000 2500.000 2500.000 2500.000 2500.000 2500.000 2500.000 2500.000 2500.000 2500.000 2500.000 2500.000 2500.000 2500.000 2500.000 2500.000 2500.000 2500.000 2500.000 2500.000
2500.000 2500.000 2500.000 2500.000 2500.000 2500.000 2500.000 2500.000 2500.000 2500.000 2500.000 2500.000 2500.000 2500.000 2500.000 2500.000 2500.000 2500.000 2500.000 2500.000 2500.000 2500.000 2500.000 2500.000 2500.000 2500.000 2500.000 2500.000 2500.000 2500.000 2500.000 2319.238 2156.780 2050.917 1966.802 1895.289 1832.317 1775.656 1723.920 1676.183 1631.783 1590.234 1551.159 1514.264 1479.314 1446.114 1414.505 1384.350 1355.535 1327.961 1301.543 1276.205 1251.881 1228.515 1206.052 1184.449 1163.662 1143.654 1124.391 1105.843 1087.980 1070.778 1054.213 1038.263 1022.908 1008.130 993.912 980.239 967.094 954.466 942.341 930.709 919.557 908.876 898.657 888.890 879.568 870.683 862.227 854.195 846.579 839.375 832.577 826.180 820.179 814.570 809.349 804.513 800.059 795.983 792.282 788.955 785.999 783.412 781.192 779.339 777.850 776.726 775.964 775.565 775.529 775.855 776.544 777.596 779.012 780.792 782.939 785.452 788.334 791.587 795.213 799.213 803.592 808.351 813.495 819.026 824.948 831.265 837.983 845.106 852.638 860.587 868.957 877.756 886.990 896.668 906.796 917.383 928.440 939.976 952.001 964.528 977.568 991.135 1005.242 1019.907 1035.145 1050.974 1067.415 1084.488 1102.216 1120.625 1139.743 1159.599 1180.227 1201.665 1223.951 1247.133 1271.261 1296.391 1322.588 1349.924 1378.483 1408.361 1439.670 1472.540 1507.125 1543.614 1582.231 1623.259 1667.053 1714.077 1764.949 1820.533 1882.100 1951.662 2032.774 2133.019 2276.841 2500.000 2500.000 2500.000 2500.000 2500.000 2500.000 2500.000 2500.000 2500.000 2500.000 2500.000 2500.000 2500.000 2500.000 2500.000 2500.000 2500.000 2500.000 2500.000 2500.000 2500.000 2500.000 2500.000 2500.000 2500.000 2500.000 2500.000 2500.000 2500.000 2500.000 2500.000
2500.000 2500.000 2500.000 2500.000 2500.000 2500.000 2500.000 2500.000 2500.000 2500.000 2500.000 2500.000 2500.000 2500.000 2500.000 2500.000 2500.000 2500.000 2500.000 2500.000 2500.000 2500.000 2500.000 2500.000 2500.000 2500.000 2500.000 2500.000 2500.000 2500.000 2500.000 2500.000 2336.675 2167.509 2060.483 1976.025 1904.454 1841.555 1785.035 1733.482 1685.951 1641.775 1600.458 1561.624 1524.974 1490.272 1457.323 1425.966 1396.064 1367.503 1340.183 1314.019 1288.936 1264.868 1241.757 1219.551 1198.203 1177.672 1157.921 1138.916 1120.625 1103.021 1086.078 1069.773 1054.083 1038.990 1024.475 1010.520 997.111 984.233 971.872 960.016 948.654 937.774 927.367 917.423 907.934 898.891 890.287 882.116 874.369 867.043 860.130 853.625 847.525 841.823 836.517 831.603 827.076 822.934 819.174 815.794 812.791 810.163 807.908 806.025 804.513 803.371 802.598 802.193 802.156 802.487 803.187 804.255 805.693 807.502 809.682 812.235 815.163 818.468 822.152 826.217 830.666 835.503 840.731 846.353 852.373 858.796 865.627 872.871 880.532 888.619 897.135 906.090 915.489 925.341 935.655 946.440 957.705 969.461 981.720 994.493 1007.795 1021.639 1036.041 1051.018 1066.586 1082.767 1099.580 1117.050 1135.202 1154.062 1173.661 1194.033 1215.214 1237.245 1260.171 1284.044 1308.919 1334.860 1361.943 1390.248 1419.873 1450.929 1483.548 1517.885 1554.127 1592.503 1633.297 1676.866 1723.679 1774.362 1829.795 1891.272 1960.857 2042.234 2143.384 2291.314 2500.000 2500.000 2500.000 2500.000 2500.000 2500.000 2500.000 2500.000 2500.000 2500.000 2500.000 2500.000 2500.000 2500.000 2500.000 2500.000 2500.000 2500.000 2500.000 2500.000 2500.000 2500.000 2500.000 2500.000 2500.000 2500.000 2500.000 2500.000 2500.000 2500.000 2500.000 2500.000
2500.000 2500.000 2500.000 2500.000 2500.000 2500.000 2500.000 2500.000 2500.000 2500.000 2500.000 2500.000 2500.000 2500.000 2500.000 2500.000 2500.000 2500.000 2500.000 2500.000 2500.000 2500.000 2500.000 2500.000 2500.000 2500.000 2500.000 2500.000 2500.000 2500.000 2500.000 2500.000 2500.000 2365.185 2182.510 2073.180 1987.848 1915.898 1852.852 1796.313 1744.818 1697.395 1653.360 1612.208 1573.555 1537.101 1502.603 1469.866 1438.727 1409.049 1380.714 1353.625 1327.695 1302.847 1279.017 1256.145 1234.180 1213.075 1192.789 1173.284 1154.526 1136.484 1119.131 1102.440 1086.388 1070.953 1056.116 1041.859 1028.164 1015.017 1002.402 990.306 978.718 967.624 957.016 946.882 937.214 928.003 919.241 910.920 903.034 895.576 888.541 881.922 875.716 869.916 864.518 859.520 854.916 850.705 846.882 843.445 840.392 837.720 835.428 833.514 831.977 830.816 830.030 829.618 829.581 829.918 830.629 831.715 833.177 835.015 837.231 839.827 842.804 846.164 849.909 854.043 858.568 863.487 868.804 874.523 880.648 887.184 894.136 901.509 909.308 917.541 926.215 935.336 944.912 954.951 965.464 976.460 987.948 999.942 1012.452 1025.492 1039.076 1053.219 1067.939 1083.252 1099.179 1115.740 1132.959 1150.861 1169.474 1188.827 1208.954 1229.892 1251.681 1274.368 1298.002 1322.641 1348.349 1375.200 1403.278 1432.679 1463.516 1495.921 1530.052 1566.097 1604.288 1644.912 1688.335 1735.033 1785.647 1841.080 1902.673 1972.577 2054.691 2157.692 2313.452 2500.000 2500.000 2500.000 2500.000 2500.000 2500.000 2500.000 2500.000 2500.000 2500.000 2500.000 2500.000 2500.000 2500.000 2500.000 2500.000 2500.000 2500.000 2500.000 2500.000 2500.000 2500.000 2500.000 2500.000 2500.000 2500.000 2500.000 2500.000 2500.000 2500.000 2500.000 2500.000 2500.000
2500.000 2500.000 2500.000 2500.000 2500.000 2500.000 2500.000 2500.000 2500.000 2500.000 2500.000 2500.000 2500.000 2500.000 2500.000 2500.000 2500.000 2500.000 2500.000 2500.000 2500.000 2500.000 2500.000 2500.000 2500.000 2500.000 2500.000 2500.000 2500.000 2500.000 2500.000 2500.000 2500.000 2500.000 2415.295 2202.427 2089.299 2002.456 1929.759 1866.320 1809.583 1758.009 1710.586 1666.603 1625.543 1587.010 1550.698 1516.359 1483.794 1452.837 1423.350 1395.215 1368.331 1342.611 1317.978 1294.367 1271.719 1249.980 1229.105 1209.051 1189.781 1171.260 1153.458 1136.347 1119.900 1104.095 1088.910 1074.325 1060.321 1046.883 1033.994 1021.639 1009.807 998.484 987.659 977.321 967.461 958.069 949.137 940.657 932.622 925.024 917.857 911.117 904.796 898.891 893.396 888.308 883.623 879.337 875.446 871.949 868.842 866.124 863.792 861.846 860.282 859.101 858.301 857.882 857.844 858.187 858.910 860.015 861.502 863.372 865.627 868.268 871.297 874.715 878.527 882.734 887.339 892.346 897.759 903.582 909.819 916.475 923.556 931.067 939.015 947.405 956.246 965.546 975.312 985.553 996.280 1007.502 1019.232 1031.480 1044.261 1057.589 1071.478 1085.946 1101.009 1116.689 1133.005 1149.981 1167.643 1186.017 1205.135 1225.029 1245.737 1267.300 1289.762 1313.177 1337.599 1363.096 1389.741 1417.618 1446.826 1477.479 1509.710 1543.679 1579.579 1617.645 1658.172 1701.533 1748.219 1798.894 1854.496 1916.433 1986.994 2070.407 2176.465 2346.540 2500.000 2500.000 2500.000 2500.000 2500.000 2500.000 2500.000 2500.000 2500.000 2500.000 2500.000 2500.000 2500.000 2500.000 2500.000 2500.000 2500.000 2500.000 2500.000 2500.000 2500.000 2500.000 2500.000 2500.000 2500.000 2500.000 2500.000 2500.000 2500.000 2500.000 2500.000 2500.000 2500.000 2500.000
2500.000 2500.000 2500.000 2500.000 2500.000 2500.000 2500.000 2500.000 2500.000 2500.000 2500.000 2500.000 2500.000 2500.000 2500.000 2500.000 2500.000 2500.000 2500.000 2500.000 2500.000 2500.000 2500.000 2500.000 2500.000 2500.000 2500.000 2500.000 2500.000 2500.000 2500.000 2500.000 2500.000 2500.000 2500.000 2500.000 2228.338 2109.263 2020.104 1946.218 1882.100 1824.963 1773.157 1725.613 1681.587 1640.538 1602.058 1565.829 1531.599 1499.163 1468.351 1439.022 1411.056 1384.350 1358.816 1334.378 1310.967 1288.524 1266.995 1246.335 1226.501 1207.454 1189.161 1171.589 1154.712 1138.503 1122.938 1107.996 1093.657 1079.903 1066.717 1054.083 1041.988 1030.417 1019.358 1008.801 998.734 989.148 980.033 971.381 963.185 955.437 948.130 941.259 934.816 928.798 923.199 918.016 913.242 908.876 904.914 901.352 898.189 895.421 893.046 891.064 889.472 888.270 887.455 887.029 886.990 887.339 888.076 889.201 890.714 892.619 894.914 897.603 900.688 904.169 908.052 912.337 917.028 922.130 927.645 933.579 939.936 946.721 953.940 961.600 969.706 978.266 987.287 996.778 1006.749 1017.207 1028.164 1039.632 1051.622 1064.147 1077.221 1090.860 1105.081 1119.900 1135.339 1151.417 1168.159 1185.589 1203.736 1222.630 1242.304 1262.796 1284.146 1306.402 1329.615 1353.843 1379.152 1405.617 1433.323 1462.370 1492.875 1524.974 1558.831 1594.641 1632.648 1673.154 1716.546 1763.335 1814.216 1870.179 1932.726 2004.344 2089.756 2200.542 2401.005 2500.000 2500.000 2500.000 2500.000 2500.000 2500.000 2500.000 2500.000 2500.000 2500.000 2500.000 2500.000 2500.000 2500.000 2500.000 2500.000 2500.000 2500.000 2500.000 2500.000 2500.000 2500.000 2500.000 2500.000 2500.000 2500.000 2500.000 2500.000 2500.000 2500.000 2500.000 2500.000 2500.000 2500.000 2500.000
2500.000 2500.000 2500.000 2500.000 2500.000 2500.000 2500.000 2500.000 2500.000 2500.000 2500.000 2500.000 2500.000 2500.000 2500.000 2500.000 2500.000 2500.000 2500.000 2500.000 2500.000 2500.000 2500.000 2500.000 2500.000 2500.000 2500.000 2500.000 2500.000 2500.000 2500.000 2500.000 2500.000 2500.000 2500.000 2500.000 2500.000 2262.198 2133.701 2041.143 1965.514 1900.375 1842.600 1790.387 1742.587 1698.408 1657.281 1618.779 1582.572 1548.396 1516.041 1485.333 1456.125 1428.296 1401.740 1376.368 1352.100 1328.868 1306.612 1285.278 1264.818 1245.189 1226.354 1208.276 1190.926 1174.274 1158.294 1142.963 1128.258 1114.161 1100.652 1087.715 1075.333 1063.494 1052.183 1041.388 1031.097 1021.301 1011.990 1003.153 994.784 986.874 979.416 972.404 965.831 959.692 953.981 948.694 943.827 939.375 935.336 931.705 928.480 925.659 923.239 921.219 919.597 918.371 917.541 917.107 917.068 917.423 918.174 919.320 920.863 922.803 925.143 927.884 931.027 934.577 938.534 942.903 947.687 952.890 958.515 964.568 971.054 977.978 985.347 993.166 1001.442 1010.185 1019.400 1029.099 1039.290 1049.983 1061.190 1072.923 1085.194 1098.019 1111.413 1125.391 1139.972 1155.177 1171.025 1187.541 1204.749 1222.679 1241.360 1260.827 1281.117 1302.273 1324.341 1347.373 1371.428 1396.573 1422.886 1450.453 1479.375 1509.773 1541.786 1575.581 1611.363 1649.383 1689.954 1733.482 1780.504 1831.756 1888.302 1951.776 2024.947 2113.283 2231.346 2500.000 2500.000 2500.000 2500.000 2500.000 2500.000 2500.000 2500.000 2500.000 2500.000 2500.000 2500.000 2500.000 2500.000 2500.000 2500.000 2500.000 2500.000 2500.000 2500.000 2500.000 2500.000 2500.000 2500.000 2500.000 2500.000 2500.000 2500.000 2500.000 2500.000 2500.000 2500.000 2500.000 2500.000 2500.000 2500.000 2500.000
2500.000 2500.000 2500.000 2500.000 2500.000 2500.000 2500.000 2500.000 2500.000 2500.000 2500.000 2500.000 2500.000 2500.000 2500.000 2500.000 2500.000 2500.000 2500.000 2500.000 2500.000 2500.000 2500.000 2500.000 2500.000 2500.000 2500.000 2500.000 2500.000 2500.000 2500.000 2500.000 2500.000 2500.000 2500.000 2500.000 2500.000 2500.000 2308.167 2163.585 2066.064 1987.970 1921.381 1862.681 1809.855 1761.640 1717.185 1675.879 1637.272 1601.014 1566.833 1534.508 1503.857 1474.732 1447.004 1420.567 1395.328 1371.206 1348.132 1326.043 1304.885 1284.609 1265.172 1246.535 1228.662 1211.522 1195.086 1179.328 1164.223 1149.750 1135.889 1122.620 1109.928 1097.796 1086.211 1075.158 1064.625 1054.602 1045.077 1036.041 1027.485 1019.400 1011.780 1004.615 997.901 991.632 985.801 980.403 975.435 970.891 966.768 963.063 959.773 956.894 954.426 952.365 950.710 949.460 948.614 948.170 948.130 948.493 949.258 950.427 952.001 953.981 956.368 959.164 962.372 965.994 970.033 974.492 979.375 984.687 990.431 996.612 1003.237 1010.310 1017.839 1025.831 1034.292 1043.231 1052.658 1062.580 1073.010 1083.958 1095.436 1107.457 1120.036 1133.188 1146.929 1161.279 1176.255 1191.881 1208.180 1225.177 1242.900 1261.382 1280.656 1300.761 1321.739 1343.637 1366.510 1390.417 1415.426 1441.617 1469.078 1497.915 1528.249 1560.226 1594.020 1629.842 1667.954 1708.688 1752.471 1799.875 1851.694 1909.090 1973.882 2049.251 2141.810 2271.582 2500.000 2500.000 2500.000 2500.000 2500.000 2500.000 2500.000 2500.000 2500.000 2500.000 2500.000 2500.000 2500.000 2500.000 2500.000 2500.000 2500.000 2500.000 2500.000 2500.000 2500.000 2500.000 2500.000 2500.000 2500.000 2500.000 2500.000 2500.000 2500.000 2500.000 2500.000 2500.000 2500.000 2500.000 2500.000 2500.000 2500.000 2500.000
2500.000 2500.000 2500.000 2500.000 2500.000 2500.000 2500.000 2500.000 2500.000 2500.000 2500.000 2500.000 2500.000 2500.000 2500.000 2500.000 2500.000 2500.000 2500.000 2500.000 2500.000 2500.000 2500.000 2500.000 2500.000 2500.000 2500.000 2500.000 2500.000 2500.000 2500.000 2500.000 2500.000 2500.000 2500.000 2500.000 2500.000 2500.000 2500.000 2379.377 2200.542 2095.587 2014.022 1945.428 1885.447 1831.756 1782.940 1738.062 1696.461 1657.652 1621.265 1587.010 1554.656 1524.013 1494.925 1467.261 1440.908 1415.772 1391.769 1368.828 1346.885 1325.883 1305.774 1286.513 1268.060 1250.380 1233.440 1217.210 1201.665 1186.779 1172.531 1158.900 1145.867 1133.417 1121.532 1110.198 1099.402 1089.131 1079.375 1070.122 1061.364 1053.089 1045.292 1037.964 1031.097 1024.687 1018.725 1013.208 1008.130 1003.487 999.275 995.490 992.129 989.189 986.668 984.563 982.873 981.596 980.732 980.280 980.239 980.609 981.390 982.584 984.192 986.213 988.651 991.507 994.784 998.484 1002.611 1007.167 1012.158 1017.586 1023.458 1029.779 1036.554 1043.789 1051.492 1059.670 1068.331 1077.485 1087.139 1097.306 1107.996 1119.221 1130.995 1143.331 1156.246 1169.756 1183.879 1198.635 1214.047 1230.138 1246.934 1264.464 1282.759 1301.856 1321.792 1342.611 1364.361 1387.098 1410.883 1435.787 1461.889 1489.282 1518.076 1548.396 1580.394 1614.252 1650.191 1688.489 1729.497 1773.674 1821.638 1874.260 1932.836 1999.450 2077.892 2176.658 2327.736 2500.000 2500.000 2500.000 2500.000 2500.000 2500.000 2500.000 2500.000 2500.000 2500.000 2500.000 2500.000 2500.000 2500.000 2500.000 2500.000 2500.000 2500.000 2500.000 2500.000 2500.000 2500.000 2500.000 2500.000 2500.000 2500.000 2500.000 2500.000 2500.000 2500.000 2500.000 2500.000 2500.000 2500.000 2500.000 2500.000 2500.000 2500.000 2500.000
2500.000 2500.000 2500.000 2500.000 2500.000 2500.000 2500.000 2500.000 2500.000 2500.000 2500.000 2500.000 2500.000 2500.000 2500.000 2500.000 2500.000 2500.000 2500.000 2500.000 2500.000 2500.000 2500.000 2500.000 2500.000 2500.000 2500.000 2500.000 2500.000 2500.000 2500.000 2500.000 2500.000 2500.000 2500.000 2500.000 2500.000 2500.000 2500.000 2500.000 2500.000 2247.661 2130.812 2044.286 1972.933 1911.209 1856.339 1806.693 1761.217 1719.183 1680.061 1643.452 1609.045 1576.596 1545.904 1516.804 1489.159 1462.852 1437.785 1413.872 1391.036 1369.215 1348.349 1328.388 1309.286 1291.002 1273.501 1256.748 1240.714 1225.373 1210.698 1196.668 1183.262 1170.461 1158.247 1146.606 1135.522 1124.982 1114.973 1105.484 1096.504 1088.024 1080.035 1072.528 1065.497 1058.933 1052.830 1047.184 1041.988 1037.237 1032.928 1029.056 1025.619 1022.612 1020.034 1017.882 1016.154 1014.849 1013.965 1013.502 1013.460 1013.839 1014.638 1015.859 1017.502 1019.569 1022.062 1024.983 1028.334 1032.119 1036.340 1041.002 1046.109 1051.665 1057.676 1064.147 1071.084 1078.495 1086.388 1094.769 1103.648 1113.034 1122.938 1133.371 1144.345 1155.874 1167.971 1180.654 1193.937 1207.841 1222.385 1237.592 1253.485 1270.091 1287.441 1305.565 1324.500 1344.286 1364.967 1386.593 1409.220 1432.913 1457.743 1483.794 1511.162 1539.961 1570.323 1602.406 1636.403 1672.549 1711.140 1752.554 1797.291 1846.031 1899.750 1959.931 2029.044 2111.831 2220.179 2431.626 2500.000 2500.000 2500.000 2500.000 2500.000 2500.000 2500.000 2500.000 2500.000 2500.000 2500.000 2500.000 2500.000 2500.000 2500.000 2500.000 2500.000 2500.000 2500.000 2500.000 2500.000 2500.000 2500.000 2500.000 2500.000 2500.000 2500.000 2500.000 2500.000 2500.000 2500.000 2500.000 2500.000 2500.000 2500.000 2500.000 2500.000 2500.000 2500.000 2500.000
2500.000 2500.000 2500.000 2500.000 2500.000 2500.000 2500.000 2500.000 2500.000 2500.000 2500.000 2500.000 2500.000 2500.000 2500.000 2500.000 2500.000 2500.000 2500.000 2500.000 2500.000 2500.000 2500.000 2500.000 2500.000 2500.000 2500.000 2500.000 2500.000 2500.000 2500.000 2500.000 2500.000 2500.000 2500.000 2500.000 2500.000 2500.000 2500.000 2500.000 2500.000 2500.000 2312.450 2173.580 2079.673 2004.470 1940.380 1883.924 1833.160 1786.873 1744.239 1704.670 1667.729 1633.080 1600.458 1569.651 1540.482 1512.807 1486.504 1461.467 1437.609 1414.850 1393.124 1372.370 1352.535 1333.574 1315.443 1298.106 1281.528 1265.678 1250.530 1236.058 1222.238 1209.051 1196.476 1184.496 1173.096 1162.259 1151.974 1142.226 1133.005 1124.300 1116.102 1108.400 1101.188 1094.457 1088.202 1082.414 1077.089 1072.222 1067.808 1063.842 1060.321 1057.242 1054.602 1052.399 1050.629 1049.293 1048.389 1047.915 1047.872 1048.260 1049.078 1050.328 1052.010 1054.127 1056.679 1059.670 1063.102 1066.979 1071.303 1076.079 1081.312 1087.007 1093.168 1099.804 1106.919 1114.522 1122.620 1131.223 1140.340 1149.981 1160.159 1170.884 1182.170 1194.033 1206.487 1219.551 1233.242 1247.582 1262.593 1278.300 1294.730 1311.913 1329.882 1348.675 1368.331 1388.897 1410.424 1432.971 1456.604 1481.398 1507.440 1534.832 1563.691 1594.158 1626.401 1660.625 1697.083 1736.096 1778.075 1823.576 1873.362 1928.554 1990.908 2063.480 2152.617 2277.402 2500.000 2500.000 2500.000 2500.000 2500.000 2500.000 2500.000 2500.000 2500.000 2500.000 2500.000 2500.000 2500.000 2500.000 2500.000 2500.000 2500.000 2500.000 2500.000 2500.000 2500.000 2500.000 2500.000 2500.000 2500.000 2500.000 2500.000 2500.000 2500.000 2500.000 2500.000 2500.000 2500.000 2500.000 2500.000 2500.000 2500.000 2500.000 2500.000 2500.000 2500.000 2500.000
2500.000 2500.000 2500.000 2500.000 2500.000 2500.000 2500.000 2500.000 2500.000 2500.000 2500.000 2500.000 2500.000 2500.000 2500.000 2500.000 2500.000 2500.000 2500.000 2500.000 2500.000 2500.000 2500.000 2500.000 2500.000 2500.000 2500.000 2500.000 2500.000 2500.000 2500.000 2500.000 2500.000 2500.000 2500.000 2500.000 2500.000 2500.000 2500.000 2500.000 2500.000 2500.000 2500.000 2435.386 2227.420 2121.615 2040.870 1973.526 1914.936 1862.681 1815.310 1771.869 1731.690 1694.286 1659.286 1626.401 1595.401 1566.097 1538.335 1511.984 1486.935 1463.094 1440.377 1418.716 1398.047 1378.316 1359.474 1341.477 1324.287 1307.870 1292.192 1277.227 1262.947 1249.330 1236.354 1224.000 1212.250 1201.087 1190.496 1180.464 1170.978 1162.026 1153.597 1145.683 1138.273 1131.360 1124.936 1118.995 1113.530 1108.535 1104.006 1099.938 1096.326 1093.168 1090.461 1088.202 1086.388 1085.018 1084.090 1083.605 1083.561 1083.958 1084.797 1086.078 1087.803 1089.973 1092.591 1095.659 1099.179 1103.155 1107.592 1112.493 1117.864 1123.710 1130.036 1136.851 1144.161 1151.974 1160.299 1169.145 1178.524 1188.446 1198.924 1209.971 1221.603 1233.834 1246.684 1260.171 1274.317 1289.143 1304.676 1320.943 1337.976 1355.808 1374.478 1394.028 1414.505 1435.963 1458.463 1482.073 1506.874 1532.956 1560.426 1589.410 1620.057 1652.548 1687.104 1724.001 1763.590 1806.332 1852.852 1904.034 1961.205 2026.529 2104.020 2203.057 2364.722 2500.000 2500.000 2500.000 2500.000 2500.000 2500.000 2500.000 2500.000 2500.000 2500.000 2500.000 2500.000 2500.000 2500.000 2500.000 2500.000 2500.000 2500.000 2500.000 2500.000 2500.000 2500.000 2500.000 2500.000 2500.000 2500.000 2500.000 2500.000 2500.000 2500.000 2500.000 2500.000 2500.000 2500.000 2500.000 2500.000 2500.000 2500.000 2500.000 2500.000 2500.000 2500.000 2500.000
2500.000 2500.000 2500.000 2500.000 2500.000 2500.000 2500.000 2500.000 2500.000 2500.000 2500.000 2500.000 2500.000 2500.000 2500.000 2500.000 2500.000 2500.000 2500.000 2500.000 2500.000 2500.000 2500.000 2500.000 2500.000 2500.000 2500.000 2500.000 2500.000 2500.000 2500.000 2500.000 2500.000 2500.000 2500.000 2500.000 2500.000 2500.000 2500.000 2500.000 2500.000 2500.000 2500.000 2500.000 2500.000 2301.128 2172.624 2083.407 2011.456 1949.955 1895.703 1846.892 1802.379 1761.386 1723.357 1687.873 1654.615 1623.330 1593.813 1565.896 1539.440 1514.328 1490.458 1467.745 1446.114 1425.500 1405.845 1387.098 1369.215 1352.154 1335.880 1320.360 1305.565 1291.468 1278.045 1265.273 1253.134 1241.608 1230.679 1220.332 1210.552 1201.328 1192.646 1184.496 1176.869 1169.756 1163.147 1157.037 1151.417 1146.283 1141.628 1137.447 1133.737 1130.493 1127.712 1125.391 1123.528 1122.121 1121.169 1120.670 1120.625 1121.033 1121.894 1123.210 1124.982 1127.211 1129.900 1133.051 1136.668 1140.754 1145.314 1150.352 1155.874 1161.886 1168.394 1175.406 1182.929 1190.974 1199.548 1208.663 1218.331 1228.564 1239.375 1250.780 1262.796 1275.439 1288.730 1302.691 1317.344 1332.717 1348.838 1365.738 1383.454 1402.025 1421.494 1441.912 1463.335 1485.825 1509.457 1534.314 1560.492 1588.106 1617.291 1648.208 1681.052 1716.068 1753.558 1793.919 1837.675 1885.549 1938.595 1998.452 2067.941 2152.797 2269.403 2500.000 2500.000 2500.000 2500.000 2500.000 2500.000 2500.000 2500.000 2500.000 2500.000 2500.000 2500.000 2500.000 2500.000 2500.000 2500.000 2500.000 2500.000 2500.000 2500.000 2500.000 2500.000 2500.000 2500.000 2500.000 2500.000 2500.000 2500.000 2500.000 2500.000 2500.000 2500.000 2500.000 2500.000 2500.000 2500.000 2500.000 2500.000 2500.000 2500.000 2500.000 2500.000 2500.000 2500.000 2500.000
2500.000 2500.000 2500.000 2500.000 2500.000 2500.000 2500.000 2500.000 2500.000 2500.000 2500.000 2500.000 2500.000 2500.000 2500.000 2500.000 2500.000 2500.000 2500.000 2500.000 2500.000 2500.000 2500.000 2500.000 2500.000 2500.000 2500.000 2500.000 2500.000 2500.000 2500.000 2500.000 2500.000 2500.000 2500.000 2500.000 2500.000 2500.000 2500.000 2500.000 2500.000 2500.000 2500.000 2500.000 2500.000 2500.000 2452.042 2237.941 2134.213 2055.393 1989.804 1932.836 1882.100 1836.166 1794.096 1755.235 1719.103 1685.338 1653.655 1623.829 1595.677 1569.046 1543.810 1519.860 1497.104 1475.464 1454.868 1435.258 1416.579 1398.785 1381.832 1365.683 1350.304 1335.665 1321.739 1308.499 1295.924 1283.992 1272.686 1261.987 1251.881 1242.353 1233.390 1224.980 1217.113 1209.777 1202.965 1196.668 1190.878 1185.589 1180.796 1176.491 1172.672 1169.333 1166.471 1164.083 1162.166 1160.719 1159.739 1159.226 1159.179 1159.599 1160.485 1161.839 1163.662 1165.955 1168.722 1171.966 1175.689 1179.896 1184.591 1189.781 1195.469 1201.665 1208.373 1215.603 1223.364 1231.664 1240.516 1249.930 1259.919 1270.498 1281.682 1293.486 1305.931 1319.036 1332.824 1347.318 1362.547 1378.539 1395.328 1412.951 1431.450 1450.869 1471.263 1492.689 1515.216 1538.920 1563.891 1590.234 1618.070 1647.548 1678.842 1712.171 1747.803 1786.085 1827.468 1872.565 1922.246 1977.817 2041.415 2117.018 2213.993 2374.800 2500.000 2500.000 2500.000 2500.000 2500.000 2500.000 2500.000 2500.000 2500.000 2500.000 2500.000 2500.000 2500.000 2500.000 2500.000 2500.000 2500.000 2500.000 2500.000 2500.000 2500.000 2500.000 2500.000 2500.000 2500.000 2500.000 2500.000 2500.000 2500.000 2500.000 2500.000 2500.000 2500.000 2500.000 2500.000 2500.000 2500.000 2500.000 2500.000 2500.000 2500.000 2500.000 2500.000 2500.000 2500.000 2500.000
2500.000 2500.000 2500.000 2500.000 2500.000 2500.000 2500.000 2500.000 2500.000 2500.000 2500.000 2500.000 2500.000 2500.000 2500.000 2500.000 2500.000 2500.000 2500.000 2500.000 2500.000 2500.000 2500.000 2500.000 2500.000 2500.000 2500.000 2500.000 2500.000 2500.000 2500.000 2500.000 2500.000 2500.000 2500.000 2500.000 2500.000 2500.000 2500.000 2500.000 2500.000 2500.000 2500.000 2500.000 2500.000 2500.000 2500.000 2500.000 2333.642 2197.428 2107.349 2035.726 1974.952 1921.597 1873.761 1830.261 1790.299 1753.307 1718.863 1686.643 1656.392 1627.905 1601.014 1575.581 1551.488 1528.635 1506.937 1486.319 1466.716 1448.073 1430.339 1413.469 1397.423 1382.167 1367.668 1353.898 1340.830 1328.441 1316.710 1305.617 1295.145 1285.278 1276.000 1267.300 1259.164 1251.581 1244.542 1238.037 1232.059 1226.599 1221.651 1217.210 1213.270 1209.826 1206.874 1204.411 1202.435 1200.943 1199.933 1199.404 1199.356 1199.788 1200.702 1202.098 1203.977 1206.342 1209.196 1212.541 1216.382 1220.723 1225.569 1230.926 1236.800 1243.198 1250.130 1257.603 1265.628 1274.214 1283.376 1293.124 1303.474 1314.441 1326.043 1338.299 1351.229 1364.857 1379.208 1394.310 1410.195 1426.897 1444.455 1462.913 1482.319 1502.729 1524.205 1546.821 1570.659 1595.815 1622.404 1650.559 1680.442 1712.250 1746.226 1782.679 1822.007 1864.744 1911.634 1963.763 2022.847 2091.895 2177.239 2298.630 2500.000 2500.000 2500.000 2500.000 2500.000 2500.000 2500.000 2500.000 2500.000 2500.000 2500.000 2500.000 2500.000 2500.000 2500.000 2500.000 2500.000 2500.000 2500.000 2500.000 2500.000 2500.000 2500.000 2500.000 2500.000 2500.000 2500.000 2500.000 2500.000 2500.000 2500.000 2500.000 2500.000 2500.000 2500.000 2500.000 2500.000 2500.000 2500.000 2500.000 2500.000 2500.000 2500.000 2500.000 2500.000 2500.000 2500.000 2500.000
2500.000 2500.000 2500.000 2500.000 2500.000 2500.000 2500.000 2500.000 2500.000 2500.000 2500.000 2500.000 2500.000 2500.000 2500.000 2500.000 2500.000 2500.000 2500.000 2500.000 2500.000 2500.000 2500.000 2500.000 2500.000 2500.000 2500.000 2500.000 2500.000 2500.000 2500.000 2500.000 2500.000 2500.000 2500.000 2500.000 2500.000 2500.000 2500.000 2500.000 2500.000 2500.000 2500.000 2500.000 2500.000 2500.000 2500.000 2500.000 2500.000 2500.000 2283.667 2171.100 2089.756 2023.371 1966.333 1915.898 1870.476 1829.049 1790.916 1755.571 1722.633 1691.808 1662.862 1635.607 1609.888 1585.574 1562.557 1540.742 1520.051 1500.413 1481.766 1464.058 1447.242 1431.274 1416.118 1401.740 1388.110 1375.200 1362.986 1351.447 1340.560 1330.310 1320.678 1311.650 1303.213 1295.353 1288.059 1281.322 1275.133 1269.482 1264.363 1259.768 1255.693 1252.132 1249.080 1246.535 1244.492 1242.950 1241.906 1241.360 1241.310 1241.757 1242.701 1244.144 1246.086 1248.531 1251.481 1254.940 1258.912 1263.402 1268.416 1273.960 1280.041 1286.668 1293.849 1301.595 1309.916 1318.825 1328.334 1338.460 1349.218 1360.625 1372.702 1385.471 1398.955 1413.181 1428.179 1443.982 1460.625 1478.151 1496.606 1516.041 1536.517 1558.100 1580.870 1604.916 1630.345 1657.281 1685.875 1716.307 1748.801 1783.638 1821.177 1861.897 1906.451 1955.780 2011.328 2075.530 2153.157 2256.741 2500.000 2500.000 2500.000 2500.000 2500.000 2500.000 2500.000 2500.000 2500.000 2500.000 2500.000 2500.000 2500.000 2500.000 2500.000 2500.000 2500.000 2500.000 2500.000 2500.000 2500.000 2500.000 2500.000 2500.000 2500.000 2500.000 2500.000 2500.000 2500.000 2500.000 2500.000 2500.000 2500.000 2500.000 2500.000 2500.000 2500.000 2500.000 2500.000 2500.000 2500.000 2500.000 2500.000 2500.000 2500.000 2500.000 2500.000 2500.000 2500.000 2500.000
2500.000 2500.000 2500.000 2500.000 2500.000 2500.000 2500.000 2500.000 2500.000 2500.000 2500.000 2500.000 2500.000 2500.000 2500.000 2500.000 2500.000 2500.000 2500.000 2500.000 2500.000 2500.000 2500.000 2500.000 2500.000 2500.000 2500.000 2500.000 2500.000 2500.000 2500.000 2500.000 2500.000 2500.000 2500.000 2500.000 2500.000 2500.000 2500.000 2500.000 2500.000 2500.000 2500.000 2500.000 2500.000 2500.000 2500.000 2500.000 2500.000 2500.000 2500.000 2500.000 2255.715 2155.689 2080.268 2017.766 1963.647 1915.577 1872.166 1832.505 1795.958 1762.064 1730.471 1700.907 1673.154 1647.035 1622.404 1599.139 1577.138 1556.310 1536.582 1517.885 1500.162 1483.363 1467.443 1452.360 1438.080 1424.570 1411.802 1399.750 1388.391 1377.703 1367.668 1358.269 1349.489 1341.315 1333.735 1326.735 1320.307 1314.441 1309.128 1304.362 1300.135 1296.443 1293.279 1290.641 1288.524 1286.925 1285.844 1285.278 1285.226 1285.689 1286.668 1288.163 1290.176 1292.710 1295.768 1299.354 1303.474 1308.132 1313.334 1319.089 1325.404 1332.289 1339.752 1347.806 1356.464 1365.738 1375.645 1386.200 1397.423 1409.335 1421.958 1435.317 1449.441 1464.360 1480.110 1496.730 1514.264 1532.762 1552.279 1572.881 1594.641 1617.645 1641.994 1667.804 1695.217 1724.403 1755.571 1788.980 1824.963 1863.958 1906.557 1953.603 2006.365 2066.930 2139.202 2232.512 2391.949 2500.000 2500.000 2500.000 2500.000 2500.000 2500.000 2500.000 2500.000 2500.000 2500.000 2500.000 2500.000 2500.000 2500.000 2500.000 2500.000 2500.000 2500.000 2500.000 2500.000 2500.000 2500.000 2500.000 2500.000 2500.000 2500.000 2500.000 2500.000 2500.000 2500.000 2500.000 2500.000 2500.000 2500.000 2500.000 2500.000 2500.000 2500.000 2500.000 2500.000 2500.000 2500.000 2500.000 2500.000 2500.000 2500.000 2500.000 2500.000 2500.000 2500.000 2500.000
2500.000 2500.000 2500.000 2500.000 2500.000 2500.000 2500.000 2500.000 2500.000 2500.000 2500.000 2500.000 2500.000 2500.000 2500.000 2500.000 2500.000 2500.000 2500.000 2500.000 2500.000 2500.000 2500.000 2500.000 2500.000 2500.000 2500.000 2500.000 2500.000 2500.000 2500.000 2500.000 2500.000 2500.000 2500.000 2500.000 2500.000 2500.000 2500.000 2500.000 2500.000 2500.000 2500.000 2500.000 2500.000 2500.000 2500.000 2500.000 2500.000 2500.000 2500.000 2500.000 2500.000 2406.860 2242.512 2149.750 2078.337 2018.674 1966.802 1920.625 1878.872 1840.701 1805.522 1772.900 1742.504 1714.077 1687.411 1662.340 1638.722 1616.442 1595.401 1575.514 1556.708 1538.920 1522.094 1506.182 1491.139 1476.929 1463.516 1450.869 1438.963 1427.771 1417.272 1407.446 1398.274 1389.741 1381.832 1374.533 1367.834 1361.723 1356.191 1351.229 1346.830 1342.989 1339.698 1336.954 1334.753 1333.092 1331.967 1331.379 1331.326 1331.807 1332.824 1334.378 1336.471 1339.106 1342.287 1346.018 1350.304 1355.153 1360.570 1366.565 1373.146 1380.324 1388.110 1396.517 1405.559 1415.254 1425.616 1436.668 1448.430 1460.926 1474.183 1488.232 1503.105 1518.840 1535.479 1553.071 1571.668 1591.333 1612.137 1634.162 1657.504 1682.275 1708.609 1736.668 1766.651 1798.805 1833.442 1870.973 1911.952 1957.160 2007.760 2065.633 2134.213 2221.298 2357.522 2500.000 2500.000 2500.000 2500.000 2500.000 2500.000 2500.000 2500.000 2500.000 2500.000 2500.000 2500.000 2500.000 2500.000 2500.000 2500.000 2500.000 2500.000 2500.000 2500.000 2500.000 2500.000 2500.000 2500.000 2500.000 2500.000 2500.000 2500.000 2500.000 2500.000 2500.000 2500.000 2500.000 2500.000 2500.000 2500.000 2500.000 2500.000 2500.000 2500.000 2500.000 2500.000 2500.000 2500.000 2500.000 2500.000 2500.000 2500.000 2500.000 2500.000 2500.000 2500.000 2500.000
2500.000 2500.000 2500.000 2500.000 2500.000 2500.000 2500.000 2500.000 2500.000 2500.000 2500.000 2500.000 2500.000 2500.000 2500.000 2500.000 2500.000 2500.000 2500.000 2500.000 2500.000 2500.000 2500.000 2500.000 2500.000 2500.000 2500.000 2500.000 2500.000 2500.000 2500.000 2500.000 2500.000 2500.000 2500.000 2500.000 2500.000 2500.000 2500.000 2500.000 2500.000 2500.000 2500.000 2500.000 2500.000 2500.000 2500.000 2500.000 2500.000 2500.000 2500.000 2500.000 2500.000 2500.000 2500.000 2392.529 2241.785 2152.797 2083.857 2026.133 1975.906 1931.185 1890.759 1853.819 1819.798 1788.277 1758.937 1731.527 1705.849 1681.740 1659.063 1637.707 1617.574 1598.584 1580.666 1563.758 1547.805 1532.762 1518.585 1505.239 1492.689 1480.907 1469.866 1459.543 1449.917 1440.967 1432.679 1425.035 1418.023 1411.630 1405.845 1400.659 1396.064 1392.051 1388.616 1385.751 1383.454 1381.720 1380.547 1379.933 1379.877 1380.380 1381.441 1383.062 1385.247 1387.997 1391.318 1395.215 1399.693 1404.760 1410.424 1416.695 1423.582 1431.099 1439.257 1448.073 1457.563 1467.745 1478.641 1490.272 1502.666 1515.851 1529.858 1544.725 1560.492 1577.205 1594.917 1613.687 1633.585 1654.689 1677.094 1700.907 1726.259 1753.307 1782.243 1813.305 1846.796 1883.113 1922.787 1966.568 2015.567 2071.573 2137.819 2221.522 2349.418 2500.000 2500.000 2500.000 2500.000 2500.000 2500.000 2500.000 2500.000 2500.000 2500.000 2500.000 2500.000 2500.000 2500.000 2500.000 2500.000 2500.000 2500.000 2500.000 2500.000 2500.000 2500.000 2500.000 2500.000 2500.000 2500.000 2500.000 2500.000 2500.000 2500.000 2500.000 2500.000 2500.000 2500.000 2500.000 2500.000 2500.000 2500.000 2500.000 2500.000 2500.000 2500.000 2500.000 2500.000 2500.000 2500.000 2500.000 2500.000 2500.000 2500.000 2500.000 2500.000 2500.000 2500.000 2500.000
2500.000 2500.000 2500.000 2500.000 2500.000 2500.000 2500.000 2500.000 2500.000 2500.000 2500.000 2500.000 2500.000 2500.000 2500.000 2500.000 2500.000 2500.000 2500.000 2500.000 2500.000 2500.000 2500.000 2500.000 2500.000 2500.000 2500.000 2500.000 2500.000 2500.000 2500.000 2500.000 2500.000 2500.000 2500.000 2500.000 2500.000 2500.000 2500.000 2500.000 2500.000 2500.000 2500.000 2500.000 2500.000 2500.000 2500.000 2500.000 2500.000 2500.000 2500.000 2500.000 2500.000 2500.000 2500.000 2500.000 2500.000 2409.584 2253.423 2165.075 2097.135 2040.462 1991.276 1947.573 1908.139 1872.166 1839.092 1808.498 1780.069 1753.558 1728.767 1705.535 1683.728 1663.235 1643.963 1625.829 1608.765 1592.710 1577.612 1563.424 1550.105 1537.620 1525.936 1515.025 1504.862 1495.423 1486.689 1478.641 1471.263 1464.541 1458.463 1453.016 1448.192 1443.982 1440.377 1437.374 1434.965 1433.147 1431.918 1431.274 1431.216 1431.742 1432.854 1434.554 1436.844 1439.729 1443.212 1447.301 1452.002 1457.323 1463.274 1469.866 1477.112 1485.025 1493.620 1502.917 1512.934 1523.693 1535.220 1547.543 1560.692 1574.703 1589.615 1605.475 1622.333 1640.247 1659.286 1679.528 1701.063 1724.001 1748.468 1774.621 1802.648 1832.786 1865.335 1900.688 1939.375 1982.144 2030.106 2085.060 2150.286 2233.214 2362.887 2500.000 2500.000 2500.000 2500.000 2500.000 2500.000 2500.000 2500.000 2500.000 2500.000 2500.000 2500.000 2500.000 2500.000 2500.000 2500.000 2500.000 2500.000 2500.000 2500.000 2500.000 2500.000 2500.000 2500.000 2500.000 2500.000 2500.000 2500.000 2500.000 2500.000 2500.000 2500.000 2500.000 2500.000 2500.000 2500.000 2500.000 2500.000 2500.000 2500.000 2500.000 2500.000 2500.000 2500.000 2500.000 2500.000 2500.000 2500.000 2500.000 2500.000 2500.000 2500.000 2500.000 2500.000 2500.000 2500.000 2500.000
2500.000 2500.000 2500.000 2500.000 2500.000 2500.000 2500.000 2500.000 2500.000 2500.000 2500.000 2500.000 2500.000 2500.000 2500.000 2500.000 2500.000 2500.000 2500.000 2500.000 2500.000 2500.000 2500.000 2500.000 2500.000 2500.000 2500.000 2500.000 2500.000 2500.000 2500.000 2500.000 2500.000 2500.000 2500.000 2500.000 2500.000 2500.000 2500.000 2500.000 2500.000 2500.000 2500.000 2500.000 2500.000 2500.000 2500.000 2500.000 2500.000 2500.000 2500.000 2500.000 2500.000 2500.000 2500.000 2500.000 2500.000 2500.000 2500.000 2500.000 2279.376 2187.670 2118.982 2062.336 2013.507 1970.330 1931.515 1896.220 1863.859 1834.005 1806.332 1780.591 1756.579 1734.135 1713.123 1693.433 1674.970 1657.652 1641.411 1626.187 1611.926 1598.584 1586.121 1574.500 1563.691 1553.665 1544.398 1535.868 1528.056 1520.944 1514.518 1508.763 1503.669 1499.225 1495.423 1492.255 1489.715 1487.799 1486.504 1485.825 1485.764 1486.319 1487.491 1489.282 1491.697 1494.739 1498.414 1502.729 1507.692 1513.314 1519.605 1526.578 1534.249 1542.634 1551.752 1561.624 1572.274 1583.730 1596.023 1609.186 1623.259 1638.287 1654.320 1671.417 1689.645 1709.083 1729.821 1751.969 1775.656 1801.036 1828.304 1857.699 1889.529 1924.196 1962.250 2004.470 2052.032 2106.872 2172.624 2258.029 2406.860 2500.000 2500.000 2500.000 2500.000 2500.000 2500.000 2500.000 2500.000 2500.000 2500.000 2500.000 2500.000 2500.000 2500.000 2500.000 2500.000 2500.000 2500.000 2500.000 2500.000 2500.000 2500.000 2500.000 2500.000 2500.000 2500.000 2500.000 2500.000 2500.000 2500.000 2500.000 2500.000 2500.000 2500.000 2500.000 2500.000 2500.000 2500.000 2500.000 2500.000 2500.000 2500.000 2500.000 2500.000 2500.000 2500.000 2500.000 2500.000 2500.000 2500.000 2500.000 2500.000 2500.000 2500.000 2500.000 2500.000 2500.000 2500.000 2500.000
2500.000 2500.000 2500.000 2500.000 2500.000 2500.000 2500.000 2500.000 2500.000 2500.000 2500.000 2500.000 2500.000 2500.000 2500.000 2500.000 2500.000 2500.000 2500.000 2500.000 2500.000 2500.000 2500.000 2500.000 2500.000 2500.000 2500.000 2500.000 2500.000 2500.000 2500.000 2500.000 2500.000 2500.000 2500.000 2500.000 2500.000 2500.000 2500.000 2500.000 2500.000 2500.000 2500.000 2500.000 2500.000 2500.000 2500.000 2500.000 2500.000 2500.000 2500.000 2500.000 2500.000 2500.000 2500.000 2500.000 2500.000 2500.000 2500.000 2500.000 2500.000 2500.000 2325.931 2223.097 2151.001 2092.968 2043.601 2000.325 1961.669 1926.698 1894.773 1865.433 1838.335 1813.214 1789.859 1768.102 1747.803 1728.848 1711.140 1694.596 1679.147 1664.731 1651.295 1638.794 1627.188 1616.442 1606.524 1597.406 1589.066 1581.482 1574.635 1568.509 1563.090 1558.366 1554.326 1550.961 1548.265 1546.231 1544.856 1544.136 1544.071 1544.660 1545.904 1547.805 1550.369 1553.599 1557.503 1562.090 1567.369 1573.353 1580.054 1587.490 1595.677 1604.637 1614.393 1624.971 1636.403 1648.722 1661.967 1676.183 1691.421 1707.741 1725.210 1743.908 1763.929 1785.385 1808.408 1833.160 1859.844 1888.710 1920.086 1954.404 1992.260 2034.516 2082.508 2138.510 2207.084 2300.814 2500.000 2500.000 2500.000 2500.000 2500.000 2500.000 2500.000 2500.000 2500.000 2500.000 2500.000 2500.000 2500.000 2500.000 2500.000 2500.000 2500.000 2500.000 2500.000 2500.000 2500.000 2500.000 2500.000 2500.000 2500.000 2500.000 2500.000 2500.000 2500.000 2500.000 2500.000 2500.000 2500.000 2500.000 2500.000 2500.000 2500.000 2500.000 2500.000 2500.000 2500.000 2500.000 2500.000 2500.000 2500.000 2500.000 2500.000 2500.000 2500.000 2500.000 2500.000 2500.000 2500.000 2500.000 2500.000 2500.000 2500.000 2500.000 2500.000 2500.000 2500.000 2500.000
2500.000 2500.000 2500.000 2500.000 2500.000 2500.000 2500.000 2500.000 2500.000 2500.000 2500.000 2500.000 2500.000 2500.000 2500.000 2500.000 2500.000 2500.000 2500.000 2500.000 2500.000 2500.000 2500.000 2500.000 2500.000 2500.000 2500.000 2500.000 2500.000 2500.000 2500.000 2500.000 2500.000 2500.000 2500.000 2500.000 2500.000 2500.000 2500.000 2500.000 2500.000 2500.000 2500.000 2500.000 2500.000 2500.000 2500.000 2500.000 2500.000 2500.000 2500.000 2500.000 2500.000 2500.000 2500.000 2500.000 2500.000 2500.000 2500.000 2500.000 2500.000 2500.000 2500.000 2500.000 2424.667 2277.402 2196.397 2134.555 2083.257 2038.969 1999.825 1964.696 1932.836 1903.720 1876.963 1852.273 1829.422 1808.227 1788.540 1770.240 1753.224 1737.406 1722.713 1709.083 1696.461 1684.801 1674.061 1664.207 1655.207 1647.035 1639.666 1633.080 1627.260 1622.190 1617.858 1614.252 1611.363 1609.186 1607.714 1606.943 1606.873 1607.504 1608.835 1610.871 1613.617 1617.079 1621.265 1626.187 1631.855 1638.287 1645.497 1653.507 1662.340 1672.021 1682.580 1694.053 1706.479 1719.904 1734.379 1749.967 1766.737 1784.773 1804.173 1825.056 1847.562 1871.868 1898.190 1926.807 1958.082 1992.506 2030.772 2073.913 2123.603 2182.904 2258.805 2379.377 2500.000 2500.000 2500.000 2500.000 2500.000 2500.000 2500.000 2500.000 2500.000 2500.000 2500.000 2500.000 2500.000 2500.000 2500.000 2500.000 2500.000 2500.000 2500.000 2500.000 2500.000 2500.000 2500.000 2500.000 2500.000 2500.000 2500.000 2500.000 2500.000 2500.000 2500.000 2500.000 2500.000 2500.000 2500.000 2500.000 2500.000 2500.000 2500.000 2500.000 2500.000 2500.000 2500.000 2500.000 2500.000 2500.000 2500.000 2500.000 2500.000 2500.000 2500.000 2500.000 2500.000 2500.000 2500.000 2500.000 2500.000 2500.000 2500.000 2500.000 2500.000 2500.000 2500.000 2500.000
2500.000 2500.000 2500.000 2500.000 2500.000 2500.000 2500.000 2500.000 2500.000 2500.000 2500.000 2500.000 2500.000 2500.000 2500.000 2500.000 2500.000 2500.000 2500.000 2500.000 2500.000 2500.000 2500.000 2500.000 2500.000 2500.000 2500.000 2500.000 2500.000 2500.000 2500.000 2500.000 2500.000 2500.000 2500.000 2500.000 2500.000 2500.000 2500.000 2500.000 2500.000 2500.000 2500.000 2500.000 2500.000 2500.000 2500.000 2500.000 2500.000 2500.000 2500.000 2500.000 2500.000 2500.000 2500.000 2500.000 2500.000 2500.000 2500.000 2500.000 2500.000 2500.000 2500.000 2500.000 2500.000 2500.000 2500.000 2372.819 2262.724 2191.496 2135.583 2088.691 2048.004 2011.968 1979.615 1950.296 1923.545 1899.022 1876.462 1855.659 1836.449 1818.696 1802.289 1787.136 1773.157 1760.287 1748.468 1737.652 1727.795 1718.863 1710.823 1703.649 1697.317 1691.808 1687.104 1683.192 1680.061 1677.701 1676.107 1675.273 1675.197 1675.879 1677.321 1679.528 1682.504 1686.259 1690.803 1696.150 1702.316 1709.320 1717.185 1725.936 1735.605 1746.226 1757.841 1770.497 1784.249 1799.161 1815.310 1832.786 1851.694 1872.166 1894.360 1918.472 1944.752 1973.526 2005.227 2040.462 2080.119 2125.601 2179.375 2246.672 2344.115 2500.000 2500.000 2500.000 2500.000 2500.000 2500.000 2500.000 2500.000 2500.000 2500.000 2500.000 2500.000 2500.000 2500.000 2500.000 2500.000 2500.000 2500.000 2500.000 2500.000 2500.000 2500.000 2500.000 2500.000 2500.000 2500.000 2500.000 2500.000 2500.000 2500.000 2500.000 2500.000 2500.000 2500.000 2500.000 2500.000 2500.000 2500.000 2500.000 2500.000 2500.000 2500.000 2500.000 2500.000 2500.000 2500.000 2500.000 2500.000 2500.000 2500.000 2500.000 2500.000 2500.000 2500.000 2500.000 2500.000 2500.000 2500.000 2500.000 2500.000 2500.000 2500.000 2500.000 2500.000 2500.000 2500.000 2500.000
2500.000 2500.000 2500.000 2500.000 2500.000 2500.000 2500.000 2500.000 2500.000 2500.000 2500.000 2500.000 2500.000 2500.000 2500.000 2500.000 2500.000 2500.000 2500.000 2500.000 2500.000 2500.000 2500.000 2500.000 2500.000 2500.000 2500.000 2500.000 2500.000 2500.000 2500.000 2500.000 2500.000 2500.000 2500.000 2500.000 2500.000 2500.000 2500.000 2500.000 2500.000 2500.000 2500.000 2500.000 2500.000 2500.000 2500.000 2500.000 2500.000 2500.000 2500.000 2500.000 2500.000 2500.000 2500.000 2500.000 2500.000 2500.000 2500.000 2500.000 2500.000 2500.000 2500.000 2500.000 2500.000 2500.000 2500.000 2500.000 2500.000 2500.000 2380.941 2275.167 2207.297 2154.240 2109.904 2071.573 2037.750 2007.506 1980.216 1955.436 1932.836 1912.165 1893.226 1875.861 1859.941 1845.363 1832.037 1819.890 1808.860 1798.894 1789.947 1781.982 1774.966 1768.871 1763.675 1759.358 1755.907 1753.307 1751.552 1750.634 1750.550 1751.301 1752.889 1755.319 1758.599 1762.742 1767.760 1773.674 1780.504 1788.277 1797.024 1806.783 1817.596 1829.515 1842.600 1856.922 1872.565 1889.631 1908.244 1928.554 1950.750 1975.071 2001.828 2031.438 2064.483 2101.817 2144.789 2195.780 2259.844 2353.201 2500.000 2500.000 2500.000 2500.000 2500.000 2500.000 2500.000 2500.000 2500.000 2500.000 2500.000 2500.000 2500.000 2500.000 2500.000 2500.000 2500.000 2500.000 2500.000 2500.000 2500.000 2500.000 2500.000 2500.000 2500.000 2500.000 2500.000 2500.000 2500.000 2500.000 2500.000 2500.000 2500.000 2500.000 2500.000 2500.000 2500.000 2500.000 2500.000 2500.000 2500.000 2500.000 2500.000 2500.000 2500.000 2500.000 2500.000 2500.000 2500.000 2500.000 2500.000 2500.000 2500.000 2500.000 2500.000 2500.000 2500.000 2500.000 2500.000 2500.000 2500.000 2500.000 2500.000 2500.000 2500.000 2500.000 2500.000 2500.000 2500.000 2500.000
2500.000 2500.000 2500.000 2500.000 2500.000 2500.000 2500.000 2500.000 2500.000 2500.000 2500.000 2500.000 2500.000 2500.000 2500.000 2500.000 2500.000 2500.000 2500.000 2500.000 2500.000 2500.000 2500.000 2500.000 2500.000 2500.000 2500.000 2500.000 2500.000 2500.000 2500.000 2500.000 2500.000 2500.000 2500.000 2500.000 2500.000 2500.000 2500.000 2500.000 2500.000 2500.000 2500.000 2500.000 2500.000 2500.000 2500.000 2500.000 2500.000 2500.000 2500.000 2500.000 2500.000 2500.000 2500.000 2500.000 2500.000 2500.000 2500.000 2500.000 2500.000 2500.000 2500.000 2500.000 2500.000 2500.000 2500.000 2500.000 2500.000 2500.000 2500.000 2500.000 2500.000 2500.000 2320.278 2247.661 2193.732 2149.750 2112.314 2079.673 2050.779 2024.947 2001.703 1980.698 1961.669 1944.415 1928.773 1914.615 1901.836 1890.349 1880.081 1870.973 1862.976 1856.047 1850.154 1845.267 1841.365 1838.430 1836.449 1835.414 1835.320 1836.166 1837.958 1840.701 1844.409 1849.097 1854.787 1861.506 1869.286 1878.168 1888.199 1899.438 1911.952 1925.827 1941.162 1958.082 1976.741 1997.332 2020.104 2045.385 2073.620 2105.443 2141.810 2184.287 2235.803 2303.340 2420.627 2500.000 2500.000 2500.000 2500.000 2500.000 2500.000 2500.000 2500.000 2500.000 2500.000 2500.000 2500.000 2500.000 2500.000 2500.000 2500.000 2500.000 2500.000 2500.000 2500.000 2500.000 2500.000 2500.000 2500.000 2500.000 2500.000 2500.000 2500.000 2500.000 2500.000 2500.000 2500.000 2500.000 2500.000 2500.000 2500.000 2500.000 2500.000 2500.000 2500.000 2500.000 2500.000 2500.000 2500.000 2500.000 2500.000 2500.000 2500.000 2500.000 2500.000 2500.000 2500.000 2500.000 2500.000 2500.000 2500.000 2500.000 2500.000 2500.000 2500.000 2500.000 2500.000 2500.000 2500.000 2500.000 2500.000 2500.000 2500.000 2500.000 2500.000 2500.000 2500.000 2500.000
2500.000 2500.000 2500.000 2500.000 2500.000 2500.000 2500.000 2500.000 2500.000 2500.000 2500.000 2500.000 2500.000 2500.000 2500.000 2500.000 2500.000 2500.000 2500.000 2500.000 2500.000 2500.000 2500.000 2500.000 2500.000 2500.000 2500.000 2500.000 2500.000 2500.000 2500.000 2500.000 2500.000 2500.000 2500.000 2500.000 2500.000 2500.000 2500.000 2500.000 2500.000 2500.000 2500.000 2500.000 2500.000 2500.000 2500.000 2500.000 2500.000 2500.000 2500.000 2500.000 2500.000 2500.000 2500.000 2500.000 2500.000 2500.000 2500.000 2500.000 2500.000 2500.000 2500.000 2500.000 2500.000 2500.000 2500.000 2500.000 2500.000 2500.000 2500.000 2500.000 2500.000 2500.000 2500.000 2500.000 2500.000 2460.630 2329.193 2264.310 2215.967 2176.658 2143.384 2114.578 2089.299 2066.930 2047.037 2029.309 2013.507 1999.450 1986.994 1976.025 1966.451 1958.198 1951.206 1945.428 1940.827 1937.372 1935.044 1933.829 1933.718 1934.712 1936.817 1940.045 1944.415 1949.955 1956.700 1964.696 1974.001 1984.685 1996.835 2010.562 2026.001 2043.327 2062.764 2084.609 2109.263 2137.302 2169.583 2207.511 2253.677 2314.124 2415.295 2500.000 2500.000 2500.000 2500.000 2500.000 2500.000 2500.000 2500.000 2500.000 2500.000 2500.000 2500.000 2500.000 2500.000 2500.000 2500.000 2500.000 2500.000 2500.000 2500.000 2500.000 2500.000 2500.000 2500.000 2500.000 2500.000 2500.000 2500.000 2500.000 2500.000 2500.000 2500.000 2500.000 2500.000 2500.000 2500.000 2500.000 2500.000 2500.000 2500.000 2500.000 2500.000 2500.000 2500.000 2500.000 2500.000 2500.000 2500.000 2500.000 2500.000 2500.000 2500.000 2500.000 2500.000 2500.000 2500.000 2500.000 2500.000 2500.000 2500.000 2500.000 2500.000 2500.000 2500.000 2500.000 2500.000 2500.000 2500.000 2500.000 2500.000 2500.000 2500.000 2500.000 2500.000 2500.000 2500.000 2500.000
2500.000 2500.000 2500.000 2500.000 2500.000 2500.000 2500.000 2500.000 2500.000 2500.000 2500.000 2500.000 2500.000 2500.000 2500.000 2500.000 2500.000 2500.000 2500.000 2500.000 2500.000 2500.000 2500.000 2500.000 2500.000 2500.000 2500.000 2500.000 2500.000 2500.000 2500.000 2500.000 2500.000 2500.000 2500.000 2500.000 2500.000 2500.000 2500.000 2500.000 2500.000 2500.000 2500.000 2500.000 2500.000 2500.000 2500.000 2500.000 2500.000 2500.000 2500.000 2500.000 2500.000 2500.000 2500.000 2500.000 2500.000 2500.000 2500.000 2500.000 2500.000 2500.000 2500.000 2500.000 2500.000 2500.000 2500.000 2500.000 2500.000 2500.000 2500.000 2500.000 2500.000 2500.000 2500.000 2500.000 2500.000 2500.000 2500.000 2500.000 2500.000 2500.000 2430.718 2338.213 2284.826 2244.706 2212.250 2185.079 2161.917 2141.985 2124.767 2109.904 2097.135 2086.267 2077.153 2069.680 2063.766 2059.347 2056.378 2054.832 2054.691 2055.956 2058.638 2062.764 2068.375 2075.530 2084.308 2094.815 2107.190 2121.615 2138.337 2157.692 2180.156 2206.444 2237.702 2276.002 2325.931 2404.214 2500.000 2500.000 2500.000 2500.000 2500.000 2500.000 2500.000 2500.000 2500.000 2500.000 2500.000 2500.000 2500.000 2500.000 2500.000 2500.000 2500.000 2500.000 2500.000 2500.000 2500.000 2500.000 2500.000 2500.000 2500.000 2500.000 2500.000 2500.000 2500.000 2500.000 2500.000 2500.000 2500.000 2500.000 2500.000 2500.000 2500.000 2500.000 2500.000 2500.000 2500.000 2500.000 2500.000 2500.000 2500.000 2500.000 2500.000 2500.000 2500.000 2500.000 2500.000 2500.000 2500.000 2500.000 2500.000 2500.000 2500.000 2500.000 2500.000 2500.000 2500.000 2500.000 2500.000 2500.000 2500.000 2500.000 2500.000 2500.000 2500.000 2500.000 2500.000 2500.000 2500.000 2500.000 2500.000 2500.000 2500.000 2500.000 2500.000 2500.000 2500.000 2500.000
