ncols         296
nrows         36
xllcorner     761600
yllcorner     8523775
cellsize      12.5
NODATA_value  -9999
3674.799 3679.266 3686.936 3689.994 3692.44 3696.371 3711.568 3723.347 3739.156 3758.268 3773.309 3787.224 3799.289 3810.546 3822.237 3835.058 3845.47 3856.365 3869.138 3878.117 3885.766 3896.126 3906.255 3917.339 3922.319 3926.264 3929.568 3930.917 3935.009 3942.409 3953.991 3962.076 3970.237 3978.291 3987.512 3996.269 4006.367 4017.387 4027.363 4038.13 4050.313 4061.536 4074.476 4090.65 4106.263 4122.966 4142.05 4154.031 4167.03 4182.945 4198.268 4215.3 4230.953 4247.478 4262.308 4278.728 4291.651 4305.774 4317.462 4332.3 4349.108 4364.275 4380.742 4395.855 4402.592 4411.065 4419.819 4430.729 4441.994 4451.424 4454.477 4447.803 4435.644 4425.025 4413.583 4403.465 4394.449 4388.419 4383.024 4382.921 4371.592 4358.387 4349.301 4344.714 4344.627 4346.637 4355.548 4364.46 4375.621 4386.781 4400.19 4411.351 4428.776 4446.419 4457.199 4464.358 4468.987 4470.894 4472.19 4473.892 4474.683 4476.538 4478.799 4478.775 4481.823 4487.198 4493.585 4497.32 4507.065 4511.848 4514.016 4516.439 4523.363 4537.111 4540.678 4543.736 4549.171 4554.988 4561.296 4569.29 4576.286 4583.287 4590.29 4598.296 4605.305 4613.317 4622.331 4632.348 4640.366 4646.386 4649.677 4646.709 4644.744 4650.778 4662.814 4675.852 4691.889 4705.927 4715.965 4725.004 4733.042 4739.169 4744.214 4749.258 4754.303 4758.347 4763.392 4767.436 4769.48 4769.524 4766.568 4761.612 4754.655 4746.699 4738.742 4733.784 4729.826 4725.131 4720.179 4716.227 4712.273 4713.157 4714.42 4711.838 4705.98 4699.503 4698.812 4696.852 4692.934 4690.686 4692.408 4694.328 4695.003 4694.367 4695.054 4696.051 4698.825 4700.863 4702.899 4705.936 4709.97 4714.004 4719.038 4723.07 4727.102 4731.132 4736.162 4742.191 4753.219 4768.246 4782.272 4796.298 4809.323 4825.347 4842.667 4860.69 4882.714 4902.736 4916.758 4927.779 4935.799 4941.818 4946.837 4947.855 4949.873 4953.89 4959.906 4964.921 4970.937 4975.951 4980.964 4985.978 4992.586 4998.599 5004.61 5010.622 5015.633 5019.643 5024.653 5028.663 5033.672 5038.681 5042.69 5046.698 5050.706 5056.713 5062.721 5068.728 5075.734 5081.741 5087.747 5094.752 5099.758 5105.764 5110.769 5115.773 5121.778 5126.783 5132.787 5139.791 5147.795 5153.798 5158.802 5163.806 5169.809 5176.812 5185.814 5195.817 5205.82 5216.822 5228.825 5238.462 5244.693 5248.529 5251.607 5255.39 5257.309 5264.452 5274.876 5283.109 5290.816 5298.156 5312.268 5325.749 5345.71 5370.104 5387.172 5404.19 5410.851 5416.852 5423.852 5431.853 5441.853 5453.854 5469.854 5490.854 5511.855 5526.855 5538.855 5545.855 5548.856 5549.856 5545.844 5540.844 5533.844 5525.843 5522.843 5526.843 5533.842 5541.842 5550.841 5558.841 5566.841 5571.84 5574.84 5576.839
3671.493 3677.046 3680.832 3684.364 3688.901 3691.217 3701.069 3717.813 3731.777 3748.707 3760.591 3773.561 3786.417 3796.719 3811.383 3826.011 3836.097 3847.498 3858.324 3864.465 3869.83 3877.281 3892.783 3903.646 3910.597 3915.787 3920.707 3924.282 3935.062 3943.968 3953.053 3959.447 3966.607 3975.415 3984.446 3993.015 4001.046 4011.503 4023.441 4034.822 4046.714 4059.229 4070.785 4083.645 4101.258 4120.821 4137.65 4151.066 4164.663 4178.263 4194.186 4210.524 4229.498 4243.688 4256.875 4274.675 4288.842 4303.104 4315.709 4331.454 4347.533 4362.214 4377.138 4394.435 4404.13 4412.328 4419.786 4429.092 4441.356 4449.37 4450.775 4442.527 4427.758 4414.888 4404.374 4395.494 4390.631 4383.551 4385.271 4378.441 4367.485 4356.15 4347.063 4342.475 4342.386 4346.646 4355.557 4364.466 4377.876 4391.285 4402.444 4415.852 4431.465 4445.261 4455.52 4460.957 4462.691 4463.629 4465.366 4467.929 4470.509 4470.876 4471.963 4473.74 4477.109 4482.593 4486.902 4491.823 4498.423 4506.717 4509.464 4510.978 4517.316 4530.46 4535.923 4537.282 4541.832 4546.883 4553.251 4560.244 4568.241 4575.241 4582.245 4589.252 4597.262 4605.275 4614.292 4623.31 4631.33 4638.605 4643.638 4640.673 4639.709 4646.746 4657.784 4670.823 4685.862 4698.902 4709.942 4718.982 4726.023 4733.149 4738.195 4743.241 4748.288 4753.333 4758.379 4761.425 4763.47 4762.516 4760.561 4755.606 4749.65 4742.695 4736.739 4731.783 4727.079 4723.128 4719.178 4715.226 4714.722 4712.878 4710.05 4706.173 4698.812 4691.568 4692.131 4694.203 4691.23 4687.809 4689.437 4690.965 4692.094 4692.816 4693.521 4694.391 4697.086 4700.88 4703.917 4705.954 4708.989 4711.023 4713.057 4715.09 4717.122 4721.153 4728.183 4737.212 4749.241 4763.268 4777.295 4788.32 4802.345 4821.662 4844.687 4867.711 4889.734 4906.757 4914.779 4918.8 4924.82 4933.839 4940.858 4945.876 4948.894 4951.91 4952.926 4955.942 4960.957 4966.971 4971.984 4977.587 4981.6 4986.612 4992.624 4999.635 5006.646 5012.657 5018.667 5023.676 5027.686 5030.694 5035.703 5040.711 5045.719 5049.726 5054.733 5060.74 5066.747 5073.752 5079.759 5086.764 5094.77 5101.775 5106.78 5110.785 5115.789 5119.793 5124.797 5132.801 5139.805 5145.809 5149.812 5155.815 5163.818 5171.821 5181.824 5192.827 5202.829 5212.832 5223.834 5236.886 5245.858 5249.679 5256.983 5263.716 5268.197 5277.812 5290.316 5301.539 5311.285 5322.478 5335.228 5350.847 5365.191 5379.636 5394.856 5400.857 5405.857 5410.858 5414.859 5420.859 5428.86 5440.86 5455.86 5473.861 5491.861 5505.861 5516.861 5524.85 5528.85 5528.85 5523.849 5515.849 5506.849 5494.848 5490.848 5495.847 5506.847 5518.846 5532.846 5545.845 5554.845 5562.844 5568.844 5573.843
3668.506 3674.053 3677.116 3680.627 3685.244 3693.157 3701.48 3717.096 3729.124 3739.441 3749.784 3764.573 3779.021 3788.065 3802.999 3818.093 3829.35 3842.617 3850.786 3856.769 3863.19 3868.357 3880.158 3891.58 3897.187 3904.241 3913.675 3920.993 3933.732 3942.222 3949.597 3956.242 3963.478 3971.204 3980.286 3990.236 3998.845 4008.146 4019.596 4031.113 4042.662 4055.31 4067.307 4079.785 4097.795 4117.008 4131.419 4147.86 4161.521 4173.758 4190.723 4206.597 4226.325 4242.94 4252.93 4269.433 4285.075 4298.688 4312.565 4328.441 4345.491 4360.941 4374.018 4391.34 4405.657 4414.597 4421.769 4427.655 4436.585 4446.947 4446.44 4435.165 4419.03 4406.626 4397.719 4389.075 4387.704 4385.374 4380.793 4374.338 4365.251 4353.914 4344.825 4340.236 4342.396 4346.806 4355.567 4368.975 4382.384 4395.792 4409.198 4420.41 4431.593 4445.544 4453.969 4456.977 4455.731 4452.337 4451.369 4453.688 4454.739 4456.587 4460.13 4465.475 4471.227 4477.207 4482.058 4485.877 4487.761 4501.861 4505.128 4506.969 4509.337 4514.94 4527.781 4532.854 4536.379 4541.867 4547.203 4554.196 4561.192 4568.193 4574.197 4581.206 4588.217 4596.232 4604.25 4612.27 4620.292 4629.563 4634.598 4634.635 4634.674 4640.713 4650.753 4661.794 4674.835 4687.877 4697.919 4707.961 4716.003 4723.13 4729.177 4735.225 4741.272 4747.319 4752.367 4756.414 4758.461 4757.507 4754.554 4748.6 4743.646 4737.691 4732.736 4728.781 4725.076 4721.126 4718.176 4714.226 4715.635 4714.026 4709.611 4702.996 4694.083 4688.245 4686.426 4689.295 4689.491 4687.157 4685.81 4686.497 4688.587 4690.685 4691.66 4693.641 4696.437 4700.897 4702.936 4704.973 4706.008 4707.043 4707.078 4708.111 4710.144 4714.175 4720.205 4727.235 4736.263 4747.291 4760.318 4775.344 4793.369 4817.683 4846.708 4870.732 4889.755 4904.778 4908.8 4909.821 4915.841 4926.861 4934.879 4941.897 4946.915 4947.932 4946.948 4948.963 4952.978 4958.575 4963.589 4968.602 4973.615 4977.626 4982.638 4989.649 4997.66 5004.67 5011.68 5016.69 5020.699 5024.708 5028.716 5033.724 5038.731 5043.739 5048.746 5053.752 5059.759 5066.765 5072.771 5079.776 5088.781 5095.787 5100.792 5103.796 5107.8 5111.804 5116.809 5124.812 5132.816 5137.819 5142.822 5148.826 5156.829 5166.831 5178.834 5190.836 5201.839 5210.841 5221.843 5233.845 5246.325 5256.169 5267.949 5276.303 5281.689 5290.292 5300.865 5312.349 5323.604 5336.979 5349.5 5359.861 5368.862 5377.863 5386.863 5393.864 5399.865 5403.865 5406.866 5410.866 5417.866 5428.867 5440.867 5454.867 5468.856 5480.855 5489.855 5496.855 5500.854 5500.854 5496.854 5489.854 5480.853 5468.853 5463.852 5469.852 5481.851 5495.851 5512.85 5526.85 5537.849 5545.848 5554.848 5561.847
3668.632 3673.134 3674.699 3679.779 3683.69 3687.846 3701.962 3712.686 3727.199 3736.142 3746.164 3759.679 3770.172 3782.014 3799.166 3811.34 3823.261 3835.477 3843.94 3852.442 3860.448 3864.906 3873.372 3883.644 3891.746 3900.057 3909.092 3917.614 3929.396 3937.208 3945.15 3952.183 3959.474 3966.332 3975.897 3985.657 3995.483 4006.952 4016.772 4027.466 4039.477 4052.117 4065.097 4077.021 4101.404 4116.707 4132.368 4148.129 4160.47 4172.643 4188.099 4202.048 4219.124 4237.489 4250.191 4264.344 4281.61 4296.091 4309.904 4325.547 4340.898 4358.368 4372.981 4387.583 4404.099 4415.778 4423.332 4428.05 4433.666 4440.394 4440.629 4427.348 4415.453 4404.029 4392.706 4385.881 4383.229 4380.898 4374.443 4367.605 4360.768 4349.428 4342.589 4340.249 4340.158 4346.816 4360.079 4373.486 4389.143 4404.799 4418.26 4429.417 4438.347 4446.91 4453.921 4453.463 4450.163 4446.488 4446.199 4445.675 4446.137 4448.18 4450.127 4453.86 4463.563 4472.088 4476.497 4483.738 4487.229 4499.501 4501.363 4501.612 4503.713 4505.411 4513.466 4527.979 4533.771 4539.294 4545.414 4550.144 4555.14 4561.141 4566.146 4572.156 4578.169 4584.186 4591.206 4598.229 4606.253 4616.519 4623.557 4626.597 4628.638 4633.68 4638.722 4646.765 4657.809 4669.853 4680.896 4691.94 4700.984 4709.11 4716.159 4723.208 4730.257 4738.306 4746.354 4751.403 4754.451 4753.499 4748.547 4740.594 4735.641 4731.688 4727.734 4725.78 4724.072 4721.124 4717.175 4714.227 4716.02 4715.565 4712.402 4705.402 4695.92 4689.581 4683.977 4683.791 4684.927 4683.626 4682.375 4682.922 4685.151 4688.325 4690.388 4693.844 4697.31 4700.916 4701.955 4700.992 4701.029 4701.064 4701.099 4703.133 4707.166 4711.197 4711.228 4711.258 4714.287 4717.314 4729.342 4753.368 4782.678 4814.704 4847.729 4870.754 4884.777 4892.8 4897.822 4900.843 4908.863 4920.883 4930.901 4937.919 4942.937 4943.953 4943.969 4943.984 4946.576 4950.59 4955.604 4961.617 4966.629 4971.641 4976.653 4982.664 4988.674 4994.685 5001.694 5008.704 5013.713 5018.721 5022.729 5026.737 5031.745 5036.752 5041.759 5048.765 5054.771 5060.777 5066.783 5072.788 5079.793 5085.798 5089.803 5092.807 5097.812 5101.815 5107.819 5115.823 5124.826 5130.83 5135.833 5142.835 5151.838 5161.841 5175.844 5191.846 5202.848 5211.85 5220.852 5230.854 5240.856 5253.857 5266.859 5277.86 5285.862 5292.863 5300.864 5309.865 5319.866 5329.867 5338.868 5347.869 5356.87 5366.87 5376.871 5384.871 5391.872 5396.872 5399.873 5402.873 5408.873 5416.862 5425.861 5434.861 5443.861 5449.861 5454.86 5458.86 5463.859 5465.859 5463.859 5460.858 5454.858 5446.857 5443.857 5449.856 5459.855 5473.855 5489.854 5503.854 5512.853 5521.853 5530.852 5539.851
3674.839 3674.942 3675.66 3680.492 3683.555 3692.494 3703.47 3713.25 3722.963 3734.527 3743.239 3755.04 3765.531 3779.497 3795.113 3802.288 3810.031 3819.922 3829.838 3837.82 3849.566 3859.701 3868.959 3875.14 3890.98 3897.351 3903.668 3912.428 3922.977 3927.808 3936.411 3945.574 3951.974 3960.573 3972.276 3982.797 3990.499 4002.255 4013.749 4024.408 4038.52 4050.642 4063.706 4076.13 4102.111 4116.773 4131.978 4145.696 4158.929 4172.346 4186.249 4199.445 4215.47 4230.836 4248.239 4260.329 4278.096 4294.161 4307.737 4323.081 4337.734 4355.075 4370.678 4384.953 4401.864 4415.596 4424.991 4429.1 4432.22 4434.944 4432.048 4422.188 4413.131 4401.808 4390.483 4383.657 4381.331 4376.801 4369.963 4363.125 4356.285 4347.195 4342.604 4340.263 4342.42 4349.077 4362.342 4377.998 4398.154 4416.06 4427.27 4438.426 4447.036 4450.893 4452.731 4450.958 4446.888 4443.78 4443.73 4441.206 4442.991 4445.013 4446.391 4449.371 4455.764 4464.691 4472.431 4477.68 4486.161 4492.38 4495.023 4497.312 4499.453 4503.135 4513.742 4530.005 4532.212 4538.23 4543.235 4547.772 4551.084 4556.086 4560.092 4565.103 4569.118 4574.137 4579.159 4585.185 4594.435 4604.474 4612.515 4618.558 4621.601 4624.646 4627.691 4632.736 4640.782 4650.828 4661.874 4673.919 4683.964 4693.09 4702.141 4711.192 4719.242 4729.292 4739.342 4745.392 4748.442 4748.491 4742.54 4734.589 4729.637 4726.685 4724.732 4724.016 4722.069 4720.122 4716.175 4713.227 4716.398 4717.584 4715.568 4709.727 4700.325 4690.234 4685.628 4681.753 4680.253 4679.608 4679.328 4680.395 4682.962 4686.354 4689.091 4693.458 4697.37 4700.936 4699.975 4698.013 4696.05 4696.086 4696.121 4698.155 4704.188 4707.22 4703.251 4697.282 4694.311 4692.339 4703.366 4733.673 4770.7 4806.727 4841.752 4864.776 4874.8 4880.823 4887.845 4893.866 4903.886 4915.906 4926.924 4932.942 4936.959 4938.976 4938.991 4939.576 4941.591 4943.605 4948.619 4954.632 4960.645 4966.656 4971.667 4975.679 4979.689 4985.699 4992.709 4999.718 5006.727 5012.735 5016.743 5019.751 5024.758 5029.765 5035.771 5042.778 5049.784 5055.79 5060.795 5065.8 5070.806 5075.81 5079.814 5082.819 5087.823 5092.827 5099.831 5107.834 5116.837 5122.84 5129.843 5136.846 5146.849 5157.851 5173.854 5190.855 5203.858 5211.86 5219.861 5226.863 5234.865 5246.866 5261.868 5272.869 5280.87 5287.871 5294.873 5301.874 5309.874 5317.875 5326.876 5334.876 5342.877 5352.877 5363.878 5373.878 5381.879 5387.879 5391.868 5394.868 5398.868 5404.867 5409.867 5414.867 5419.866 5421.866 5422.866 5424.865 5427.865 5430.864 5432.864 5432.863 5430.862 5426.862 5426.861 5430.861 5438.86 5450.859 5465.859 5477.858 5485.857 5493.856 5503.856 5512.855
3674.65 3675.461 3675.065 3680.382 3688.132 3705.219 3711.505 3717.068 3724.343 3732.613 3738.21 3751.945 3766.158 3777.266 3789.968 3799.768 3808.085 3819.787 3830.611 3842.413 3853.578 3863.851 3871.29 3878.209 3887.152 3894.474 3899.77 3906.869 3913.37 3923.326 3932.575 3944.296 3951.832 3960.883 3972.464 3982.931 3991.816 4001.1 4012.304 4024.298 4038.307 4049.616 4065.196 4078.41 4096.085 4111.561 4126.061 4140.33 4157.97 4171.256 4184.624 4197.886 4214.447 4228.09 4246.583 4260.157 4277.327 4293.25 4305.129 4321.468 4338.252 4353.215 4369.112 4383.604 4399.757 4413.364 4425.312 4430.066 4431.576 4429.835 4422.323 4415.487 4408.663 4401.839 4390.513 4383.685 4379.107 4374.573 4367.735 4358.645 4351.805 4347.213 4342.621 4340.278 4342.435 4351.34 4364.607 4382.512 4404.916 4425.126 4438.532 4445.188 4453.062 4453.68 4451.882 4449.152 4446.11 4443.065 4442.054 4441.576 4442.592 4442.981 4445.688 4447.146 4449.825 4460.061 4468.736 4472.465 4479.063 4486.342 4487.729 4492.209 4497.281 4503.485 4509.917 4518.573 4528.921 4535.099 4540.521 4545.168 4549.212 4554.026 4558.033 4562.046 4565.063 4568.085 4573.11 4578.139 4585.385 4595.427 4603.472 4608.518 4612.564 4614.611 4616.659 4620.707 4627.755 4634.803 4643.851 4652.898 4663.945 4677.071 4689.124 4700.176 4710.228 4720.279 4731.331 4738.382 4741.433 4742.483 4738.534 4731.583 4727.633 4725.682 4723.731 4722.012 4721.066 4718.121 4714.175 4711.228 4714.768 4716.188 4715.522 4712.612 4706.084 4695.303 4689.574 4684.023 4677.784 4675.038 4675.765 4677.359 4680.307 4684.419 4687.316 4690.105 4693.505 4695.097 4695.749 4696.034 4695.072 4694.108 4694.144 4695.179 4698.212 4699.245 4695.276 4690.307 4687.336 4686.364 4696.667 4722.695 4754.723 4787.75 4820.775 4844.8 4859.823 4871.846 4881.868 4891.889 4901.91 4913.929 4922.947 4927.965 4930.982 4931.999 4932.577 4933.592 4935.607 4938.621 4942.635 4947.647 4952.66 4958.672 4964.683 4968.694 4973.704 4978.714 4984.724 4990.732 4998.741 5004.75 5010.757 5014.765 5019.772 5024.779 5029.785 5036.791 5043.797 5049.803 5055.808 5060.813 5064.818 5068.822 5072.827 5075.831 5079.834 5084.838 5090.842 5098.845 5107.848 5116.851 5124.854 5133.856 5143.859 5155.861 5170.863 5187.865 5199.867 5207.869 5215.871 5223.873 5231.874 5242.875 5255.876 5266.877 5274.879 5281.88 5288.881 5294.881 5300.882 5306.883 5312.884 5319.884 5326.885 5337.885 5349.885 5359.875 5367.874 5374.874 5379.874 5384.874 5387.873 5390.873 5393.873 5395.872 5397.872 5397.871 5396.871 5397.87 5400.87 5403.869 5405.869 5406.868 5407.867 5407.867 5409.866 5413.865 5419.864 5428.864 5439.863 5449.862 5457.861 5466.861 5474.86 5484.859
3668.55 3673.98 3676.151 3681.493 3692.928 3706.899 3717.542 3723.534 3730.316 3737.869 3744.613 3750.576 3760.218 3774.105 3785.647 3793.241 3812.544 3825.021 3835.032 3846.789 3855.355 3862.953 3868.287 3876.402 3885.313 3889.798 3893.267 3899.17 3913.817 3921.078 3930.229 3938.608 3949.094 3958.925 3969.041 3980.372 3989.308 4000.249 4012.29 4023.845 4036.796 4050.797 4066.068 4078.391 4090.21 4106.29 4123.508 4136.98 4162.741 4175.328 4188.626 4199.621 4218.893 4231.552 4248.264 4261.93 4278.297 4293.814 4306.876 4322.081 4337.382 4352.336 4369.558 4382.533 4397.469 4414.048 4427.025 4429.596 4427.973 4419.418 4413.323 4411.02 4404.195 4397.369 4388.292 4381.463 4379.134 4374.597 4365.507 4356.417 4349.574 4344.982 4342.639 4342.544 4344.7 4353.604 4369.312 4387.027 4413.986 4436.392 4449.796 4454.201 4458.727 4456.3 4452.178 4448.606 4446.5 4445.124 4443.512 4444.408 4444.854 4445.141 4447.191 4448.411 4449.537 4456.516 4465.495 4470.892 4475.974 4480.785 4484.788 4488.383 4494.043 4502.086 4508.1 4515.98 4523.754 4531.073 4537.376 4542.152 4547.599 4552.787 4556.846 4560.985 4562.005 4564.03 4568.059 4573.091 4579.333 4587.379 4594.427 4598.477 4601.526 4604.577 4606.627 4610.678 4614.729 4620.778 4624.828 4630.877 4642.927 4660.052 4675.106 4688.16 4700.213 4711.266 4721.319 4729.372 4733.424 4735.476 4734.527 4730.578 4728.629 4726.68 4724.951 4722.008 4718.064 4715.12 4712.175 4708.229 4711.787 4713.171 4713.736 4712.634 4708.388 4698.948 4691.387 4685.663 4678.709 4671.542 4671.356 4672.794 4675.335 4679.611 4682.872 4684.123 4685.985 4688.395 4691.401 4692.839 4695.094 4694.132 4692.168 4692.203 4692.237 4691.27 4688.301 4686.332 4686.362 4688.661 4697.69 4715.719 4739.747 4765.773 4794.799 4820.824 4843.848 4862.871 4878.893 4890.914 4902.934 4911.953 4918.972 4922.989 4924.006 4924.578 4923.594 4925.609 4929.624 4934.637 4937.651 4940.664 4945.676 4951.688 4956.699 4962.709 4967.72 4972.729 4976.739 4982.748 4989.756 4996.764 5003.771 5009.779 5014.786 5018.792 5024.799 5030.805 5037.811 5044.816 5050.821 5055.826 5059.83 5063.834 5066.839 5069.843 5072.846 5076.85 5081.853 5090.856 5099.859 5109.862 5120.865 5130.867 5141.869 5152.872 5167.874 5182.875 5194.877 5202.879 5211.88 5219.882 5228.883 5239.884 5250.885 5259.886 5268.887 5275.888 5282.889 5288.89 5292.89 5294.891 5298.892 5303.892 5310.881 5321.881 5333.881 5343.88 5351.88 5358.88 5366.879 5373.879 5376.879 5376.878 5376.878 5377.877 5378.877 5377.876 5376.876 5376.875 5378.875 5380.874 5382.873 5383.873 5385.872 5388.871 5392.871 5396.87 5401.869 5406.868 5412.867 5419.867 5428.866 5437.865 5445.864 5453.863
3671.665 3674.719 3680.468 3681.176 3694.492 3708.237 3726.646 3731.042 3736.104 3742.215 3745.465 3750.976 3759.723 3771.954 3786.135 3795.043 3805.401 3822.548 3835.208 3844.725 3852.266 3856.633 3858.76 3867.048 3880.036 3886.331 3894.903 3904.813 3913.034 3921.251 3932.229 3939.352 3947.75 3955.08 3966.519 3975.553 3988.413 3999.052 4010.802 4021.817 4034.9 4045.867 4061.092 4074.323 4087.743 4105.913 4122.067 4136.479 4162.906 4180.661 4191.366 4206.505 4223.738 4236.39 4253.535 4266.042 4281.08 4296.212 4311.097 4324.931 4338.543 4353.722 4370.318 4383.139 4397.108 4414.976 4427.665 4424.337 4417.26 4408.405 4403.88 4400.627 4399.728 4392.901 4386.073 4379.244 4374.663 4370.122 4361.031 4351.94 4347.347 4347.253 4344.909 4344.813 4346.967 4358.121 4376.077 4398.35 4425.254 4447.659 4458.812 4466.412 4466.138 4461.19 4455.962 4452.219 4450.231 4448.402 4445.631 4445.19 4444.801 4445.584 4448.901 4451.198 4454.734 4461.024 4463.972 4473.023 4475.878 4480.199 4484.211 4489.104 4494.945 4500.739 4506.102 4512.69 4521.185 4528.539 4535.231 4540.645 4546.645 4551.463 4555.615 4558.998 4559.943 4560.972 4564.005 4568.042 4573.28 4580.331 4585.382 4589.436 4593.489 4595.542 4597.596 4599.649 4603.702 4607.754 4609.806 4613.857 4624.908 4642.033 4658.089 4673.144 4687.199 4699.253 4710.308 4718.361 4724.415 4728.468 4729.521 4729.573 4728.625 4725.677 4723.946 4721.004 4717.062 4714.118 4710.175 4706.231 4708.411 4710.222 4710.725 4709.625 4704.483 4696.335 4691.937 4687.742 4680.572 4671.071 4667.093 4667.872 4669.55 4671.639 4675.732 4677.486 4678.818 4681.292 4685.305 4689.289 4690.669 4692.156 4691.192 4690.228 4689.262 4688.295 4687.328 4686.358 4687.653 4690.685 4699.714 4715.744 4735.771 4758.798 4784.824 4809.849 4833.873 4855.896 4872.917 4887.938 4899.958 4909.978 4916.996 4918.561 4918.578 4916.595 4914.611 4916.626 4921.641 4926.654 4930.667 4933.68 4937.692 4943.704 4948.715 4955.726 4961.735 4965.745 4969.754 4974.763 4981.771 4989.779 4996.786 5003.793 5009.8 5013.807 5018.812 5024.818 5031.824 5038.829 5044.834 5050.838 5054.843 5058.847 5061.851 5064.855 5067.858 5070.862 5075.865 5082.868 5091.871 5102.873 5114.875 5125.877 5137.88 5149.882 5162.884 5176.885 5188.887 5197.889 5207.89 5216.891 5225.892 5234.894 5243.895 5252.895 5260.896 5267.897 5274.897 5280.898 5284.898 5285.888 5287.888 5291.888 5297.887 5307.887 5320.887 5330.887 5339.886 5347.886 5355.885 5362.885 5364.885 5363.884 5362.883 5362.883 5363.882 5362.882 5360.881 5359.88 5360.879 5362.879 5362.878 5363.877 5366.876 5370.876 5374.875 5376.874 5379.874 5381.873 5384.872 5389.871 5398.87 5407.869 5416.868 5425.867
3679.89 3681.617 3681.879 3684.9 3695.935 3715.503 3727.382 3735.785 3740.321 3742.571 3746.936 3753.157 3768.338 3785.463 3794.141 3799.621 3805.573 3815.06 3827.327 3837.992 3844.186 3848.859 3853.496 3865.877 3878.175 3885.697 3894.745 3904.458 3912.978 3920.873 3929.13 3939.256 3943.928 3954.149 3963.414 3976.132 3987.165 3995.93 4006.969 4018.441 4031.881 4044.859 4059.102 4072.24 4088.348 4105.376 4120.281 4139.478 4160.21 4176.476 4190.706 4214.101 4228.213 4243.449 4258.651 4274.069 4283.747 4299.388 4316.702 4332.212 4344.788 4357.139 4371.957 4383.622 4397.328 4412.17 4420.607 4414.984 4404.78 4396.576 4390.902 4389.906 4390.763 4386.184 4379.355 4372.525 4367.942 4363.398 4356.558 4349.714 4347.37 4347.275 4349.43 4349.333 4353.736 4367.19 4387.343 4409.62 4436.524 4456.679 4470.037 4472.674 4472.251 4466.951 4461.605 4456.877 4455.226 4453.213 4448.732 4446.313 4445.994 4450.023 4450.885 4455.146 4463.442 4468.609 4472.332 4476.169 4478.741 4483.973 4487.498 4492.987 4497.085 4503.454 4509.417 4514.791 4521.153 4527.845 4534.512 4542.116 4547.918 4551.309 4553.675 4556.658 4558.014 4560.069 4561.384 4564.297 4567.172 4573.582 4578.337 4582.394 4586.451 4587.508 4587.565 4589.621 4592.676 4595.731 4597.785 4600.838 4609.89 4623.015 4638.072 4656.128 4673.185 4686.241 4697.296 4707.351 4715.406 4721.46 4725.515 4727.569 4727.622 4724.675 4721.941 4719 4716.059 4712.118 4707.175 4708.596 4707.342 4707.75 4708.42 4706.461 4700.185 4691.481 4688.861 4688.225 4679.891 4670.264 4663.071 4662.352 4663.946 4665.333 4666.081 4668.634 4670.032 4673.892 4679.675 4683.122 4686.825 4688.308 4689.218 4689.254 4690.289 4690.322 4690.355 4690.646 4692.678 4694.709 4703.74 4720.769 4740.797 4762.824 4786.85 4808.875 4829.898 4848.921 4866.943 4882.964 4895.984 4908.003 4915.561 4915.579 4912.596 4909.613 4905.628 4905.644 4911.658 4917.672 4921.685 4924.697 4929.709 4934.721 4940.731 4947.742 4954.751 4958.761 4961.77 4966.778 4974.787 4982.794 4989.801 4997.808 5002.815 5006.821 5011.827 5017.833 5024.837 5031.843 5038.847 5045.852 5050.856 5054.86 5057.864 5060.867 5063.871 5065.874 5069.876 5075.879 5083.882 5094.884 5107.886 5119.889 5132.891 5144.892 5156.894 5169.896 5181.897 5192.898 5203.899 5212.9 5221.902 5229.902 5236.903 5244.904 5251.905 5257.905 5264.895 5271.895 5275.895 5276.895 5279.895 5282.894 5287.894 5296.894 5308.893 5319.893 5330.893 5339.892 5346.892 5350.891 5352.89 5350.89 5349.889 5350.888 5351.888 5350.887 5349.886 5348.885 5347.885 5347.884 5347.883 5347.882 5349.881 5351.88 5353.879 5354.879 5354.878 5354.877 5355.876 5359.875 5367.874 5377.873 5387.872 5399.871
3686.633 3690.766 3689.39 3689.798 3697.003 3719.394 3734.941 3742.052 3749.145 3751.625 3755.381 3764.104 3776.349 3789.038 3798.175 3805.572 3811.431 3816.742 3825.45 3836.076 3843.322 3850.026 3855.052 3859.615 3866.655 3876.737 3884.76 3898.706 3907.509 3916.873 3925.967 3933.858 3944.901 3951.547 3962.443 3973.132 3983.858 3996.434 4007.178 4018.031 4030.776 4045.435 4058.298 4072.499 4088.224 4102.927 4121.138 4139.092 4157.938 4172.322 4190.429 4214.027 4232.114 4247.606 4263.596 4284.259 4290.113 4306.442 4324.515 4338.116 4351.525 4363.19 4378.542 4391.413 4399.63 4408.338 4409.908 4404.089 4391.95 4382.28 4378.551 4377.309 4375.487 4377.219 4372.639 4368.058 4363.519 4358.927 4354.334 4349.74 4349.645 4354.049 4356.203 4360.604 4365.007 4380.71 4400.864 4423.144 4447.797 4467.951 4474.046 4476.976 4476.17 4473.156 4469.466 4464.473 4461.531 4459.267 4455.587 4453.617 4455.212 4461.096 4463.088 4469.74 4473.071 4476.994 4478.069 4482.331 4485.137 4489.901 4493.78 4498.028 4503.298 4510.876 4514.431 4519.762 4529.239 4535.553 4539.186 4542.993 4547.773 4550.738 4552.5 4554.151 4555.733 4556.704 4557.564 4558.735 4561.079 4565.409 4570.532 4574.187 4577.85 4580.475 4580.535 4580.594 4583.652 4585.708 4587.764 4590.819 4597.873 4606.997 4620.055 4638.113 4657.171 4671.228 4684.285 4695.341 4705.397 4712.453 4718.509 4722.564 4722.619 4718.875 4715.937 4714.997 4712.057 4708.117 4703.176 4704.02 4705.82 4706.47 4705.267 4700.953 4695.301 4687.484 4682.182 4680.869 4674.508 4665.374 4657.909 4656.432 4657.838 4659.091 4659.915 4660.102 4660.235 4665.968 4671.632 4677.69 4682.086 4685.355 4687.245 4688.281 4689.316 4691.35 4692.383 4693.671 4696.704 4699.735 4709.766 4726.795 4747.823 4768.85 4789.876 4808.901 4825.925 4840.948 4857.97 4873.99 4888.01 4900.561 4906.58 4906.598 4903.615 4900.631 4896.647 4896.662 4901.676 4907.689 4911.703 4916.715 4921.727 4927.738 4933.749 4940.759 4947.769 4951.777 4954.786 4959.794 4967.802 4975.81 4983.816 4990.823 4996.83 5000.835 5005.841 5011.847 5017.852 5024.856 5032.861 5038.865 5044.869 5049.873 5053.876 5056.879 5059.883 5062.886 5065.888 5070.891 5077.893 5087.896 5099.897 5111.899 5124.901 5136.903 5148.904 5161.906 5174.907 5188.908 5200.909 5209.91 5217.911 5224.912 5230.913 5236.902 5242.902 5249.902 5255.902 5261.902 5266.902 5268.901 5271.901 5275.901 5280.9 5288.9 5298.899 5308.899 5320.898 5329.898 5334.897 5338.896 5339.896 5337.895 5337.895 5338.894 5338.893 5338.892 5336.892 5335.891 5334.89 5333.889 5333.888 5332.887 5332.886 5333.885 5333.884 5332.883 5330.882 5329.881 5328.88 5331.879 5338.878 5347.877 5358.876 5371.875
3694.583 3706.631 3704.093 3703.915 3709.151 3731.592 3744.405 3746.709 3755.888 3766.135 3771.666 3774.776 3784.486 3795.894 3803.951 3810.913 3819.645 3827.284 3833.148 3836.1 3843.938 3852.487 3859.59 3867.215 3874.931 3882.748 3891.763 3899.416 3906.238 3915.69 3928.467 3933.093 3941.862 3951.086 3960.886 3970.024 3982.396 3994.802 4007.115 4018.177 4031.114 4043.21 4059.327 4073.442 4090.622 4105.801 4122.552 4138.735 4154.91 4174.715 4194.215 4212.707 4230.964 4246.505 4266.695 4290.404 4302.074 4318.098 4331.047 4345.344 4357.59 4369.855 4391.061 4407.961 4403.628 4402.63 4399.02 4390.767 4379.466 4369.102 4363.069 4360.304 4362.068 4360.246 4363.674 4359.092 4356.799 4354.457 4352.113 4352.019 4356.422 4365.326 4371.977 4380.878 4389.831 4403.234 4418.886 4436.953 4461.322 4474.1 4480.681 4481.761 4480.026 4476.808 4473.767 4471.487 4470.415 4467.14 4464.186 4464.79 4470.018 4473.469 4475.191 4478.26 4481.965 4483.679 4484.729 4490.653 4493.619 4497.622 4500.546 4505.969 4511.311 4516.583 4523.958 4533.309 4536.372 4537.398 4545.783 4552.265 4553.084 4552.443 4552.042 4552.57 4553.04 4552.616 4551.837 4552.411 4554.665 4557.7 4561.257 4564.989 4569.585 4572.508 4573.264 4575.568 4576.628 4578.687 4581.745 4585.801 4589.856 4593.979 4603.04 4619.099 4637.157 4653.216 4670.274 4683.332 4694.389 4702.446 4708.503 4711.559 4711.615 4708.869 4705.931 4704.993 4703.055 4700.116 4697.177 4698.564 4700.696 4701.827 4700.755 4697.14 4689.991 4682.828 4676.749 4671.93 4665.603 4657.438 4652.253 4651.693 4652.288 4652.327 4652.485 4652.979 4653.042 4654.922 4662.127 4670.89 4676.545 4680.059 4682.647 4686.309 4687.345 4689.379 4690.663 4692.697 4698.73 4705.762 4717.793 4735.822 4755.851 4773.877 4791.904 4807.929 4820.952 4833.975 4847.997 4862.018 4873.561 4881.58 4887.599 4888.617 4887.634 4888.65 4888.666 4890.681 4893.695 4897.708 4901.721 4907.733 4914.745 4921.756 4928.766 4934.776 4940.785 4944.794 4948.803 4953.811 4960.818 4968.826 4975.832 4983.839 4989.845 4994.851 5000.856 5005.861 5011.866 5017.87 5024.875 5030.878 5037.882 5042.886 5047.889 5051.892 5055.895 5059.898 5064.9 5068.903 5074.905 5081.907 5090.909 5100.91 5111.912 5123.914 5137.915 5152.916 5167.917 5184.918 5197.919 5207.92 5214.91 5220.91 5225.91 5230.91 5236.91 5241.91 5246.909 5252.909 5256.909 5261.908 5265.908 5270.908 5276.907 5283.906 5291.906 5299.905 5308.905 5316.904 5321.903 5323.902 5325.902 5325.901 5325.9 5325.899 5324.898 5323.897 5321.896 5320.896 5320.895 5321.894 5320.893 5319.892 5318.891 5317.89 5315.889 5312.888 5309.887 5306.886 5304.885 5306.884 5310.882 5317.881 5326.88 5337.879
3702.439 3719.026 3719.624 3719.893 3722.401 3732.533 3747.275 3748.993 3765.493 3783.288 3789.289 3791.967 3797.235 3800.396 3805.938 3815.017 3824.812 3828.924 3833.979 3837.741 3845.042 3852.093 3856.114 3863.458 3871.937 3881.689 3890.083 3894.455 3906.001 3914.087 3921.259 3929.161 3940.906 3952.759 3962.475 3970.609 3980.528 3992.195 4004.028 4016.201 4031.702 4045.05 4060.048 4075.645 4091.703 4107.548 4124.08 4140.308 4158.257 4174.248 4197.595 4213.343 4226.956 4245.529 4264.151 4285.988 4304.463 4326.443 4338.419 4351.092 4364.937 4378.993 4394.144 4404.695 4397.108 4391.958 4386.958 4377.638 4366.398 4356.776 4348.938 4346.403 4346.359 4349.453 4348.288 4354.628 4352.332 4352.24 4354.396 4358.799 4367.702 4378.853 4392.253 4403.403 4416.856 4425.758 4436.909 4452.723 4471.279 4481.382 4484.311 4484.407 4482.57 4479.095 4476.128 4474.208 4473.194 4472.48 4472.729 4473.496 4477.119 4479.321 4481.638 4485.632 4489.286 4490.693 4493.863 4496.946 4499.904 4504.341 4510.685 4516.924 4519.686 4522.601 4530.918 4545.78 4550.108 4551.397 4552.91 4553.578 4554.003 4553.262 4551.532 4550.451 4549.079 4547.625 4545.521 4545.044 4546.971 4549.921 4552.935 4556.827 4561.389 4564.214 4567.994 4569.919 4570.606 4571.667 4575.726 4580.784 4583.84 4583.963 4590.023 4602.084 4618.144 4636.204 4656.263 4671.322 4683.38 4691.439 4697.497 4699.555 4699.798 4695.862 4693.926 4692.99 4692.053 4691.115 4689.177 4692.336 4694.284 4695.188 4695.614 4694.619 4687.045 4679.565 4673.106 4666.723 4659.18 4651.538 4647.753 4647.309 4647.806 4647.116 4645.146 4644.765 4645.022 4646.467 4651.917 4660.688 4667.05 4671.536 4678.074 4682.338 4684.375 4686.654 4687.69 4691.725 4699.758 4711.79 4726.821 4744.851 4762.879 4777.906 4790.932 4802.957 4812.981 4823.003 4835.025 4848.56 4856.581 4862.6 4866.619 4868.637 4870.654 4875.67 4880.685 4884.7 4885.714 4887.727 4892.74 4900.751 4907.763 4916.774 4924.784 4929.793 4933.803 4938.812 4943.82 4948.828 4955.835 4961.842 4968.848 4976.854 4982.86 4989.866 4994.871 4999.875 5004.88 5010.884 5016.889 5022.892 5029.896 5035.899 5040.902 5045.905 5051.908 5057.91 5062.913 5067.915 5072.917 5076.918 5082.92 5089.921 5098.923 5109.924 5125.925 5143.926 5161.927 5179.917 5194.917 5204.917 5211.918 5216.917 5220.917 5225.917 5230.917 5234.917 5238.917 5242.916 5247.916 5253.916 5260.915 5266.914 5273.914 5279.913 5284.912 5290.912 5296.911 5301.91 5305.909 5307.908 5309.907 5311.907 5312.906 5311.905 5309.904 5306.903 5304.902 5303.901 5305.9 5307.899 5306.898 5305.896 5302.896 5299.895 5295.894 5292.892 5288.891 5285.89 5283.889 5283.888 5285.887 5289.886 5296.884 5305.883
3716.333 3723.301 3727.794 3732.344 3732.16 3737.88 3751.929 3758.74 3771.332 3784.975 3789.885 3794.613 3799.246 3803.331 3808.703 3815.346 3820.647 3824.52 3828.209 3835.521 3846.306 3852.184 3857.367 3863.444 3870.549 3877.269 3882.695 3890.032 3904.441 3916.239 3924.922 3934.476 3942.166 3950.742 3961.873 3969.678 3979.947 3994.54 4007.314 4018.605 4033.72 4046.975 4060.3 4076.062 4092.027 4107.696 4125.395 4141.196 4162.341 4174.439 4200.312 4212.475 4227.018 4246.956 4262.83 4280.138 4300.608 4325.642 4339.778 4353.944 4369.48 4384.027 4390.605 4389.854 4381.554 4374.438 4368.242 4361.666 4355.387 4347.854 4340.229 4336.417 4340.193 4344.403 4345.792 4352.417 4352.367 4354.524 4361.178 4370.082 4383.482 4401.383 4417.032 4430.483 4441.633 4450.533 4457.185 4468.495 4477.288 4484.534 4486.498 4486.005 4483.376 4480.058 4477.962 4477.047 4476.717 4477.564 4477.617 4478.914 4482.709 4486.676 4493.888 4499.562 4501.058 4501.703 4503.774 4508.262 4509.085 4512.088 4519.068 4523.11 4530.234 4538.512 4543.838 4552.211 4552.419 4552.195 4551.523 4550.746 4549.818 4548.682 4547.232 4545.215 4542.855 4540.402 4538.169 4538.057 4541.005 4542.66 4545.378 4549.409 4554.482 4557.752 4561.715 4564.308 4565.585 4566.647 4570.708 4575.768 4578.826 4578.946 4583.008 4593.07 4605.131 4622.191 4642.252 4658.312 4671.372 4681.431 4686.491 4689.55 4689.79 4686.855 4683.921 4682.986 4682.05 4682.114 4685.798 4686.668 4687.909 4689.378 4691.226 4691.131 4684.849 4677.732 4670.627 4663.497 4655.962 4648.957 4645.328 4644.533 4644.629 4644.304 4642.119 4640.128 4639.636 4639.541 4641.701 4649.766 4655.713 4661.793 4670.694 4674.106 4678.644 4682.682 4685.718 4690.753 4701.787 4716.819 4732.85 4749.879 4764.908 4774.936 4781.961 4787.986 4795.01 4804.537 4819.56 4836.581 4846.602 4851.621 4855.64 4856.657 4857.674 4863.69 4871.706 4876.72 4878.734 4880.747 4886.759 4893.771 4900.782 4909.792 4917.802 4923.812 4928.821 4934.829 4939.837 4944.844 4950.852 4956.858 4963.864 4970.87 4976.876 4983.881 4989.886 4993.891 4998.895 5003.899 5009.902 5014.906 5020.909 5026.913 5032.915 5038.918 5045.92 5054.922 5061.925 5065.927 5069.928 5073.93 5076.931 5081.933 5089.934 5100.935 5116.925 5135.926 5154.926 5175.926 5190.926 5200.926 5206.926 5212.926 5217.925 5221.925 5225.925 5228.924 5231.924 5233.923 5238.923 5245.922 5253.921 5261.921 5268.92 5274.919 5278.918 5281.918 5283.917 5285.916 5286.915 5287.914 5290.913 5294.912 5296.911 5295.91 5292.909 5289.908 5285.907 5284.906 5287.905 5289.904 5287.903 5284.901 5279.9 5274.899 5269.898 5267.897 5266.896 5264.895 5263.894 5263.892 5265.891 5268.89 5273.889 5279.887
3727.578 3727.803 3733.921 3739.327 3740.277 3743.61 3750.14 3761.753 3775.356 3782.38 3787.267 3793.088 3796.014 3800.701 3808.571 3811.854 3814.562 3817.13 3822.516 3830.693 3834.731 3839.572 3846.836 3852.762 3860.397 3868.739 3879.318 3889.137 3900.188 3913.523 3927.467 3936.543 3944.529 3952.588 3961.396 3972.688 3984.604 3994.677 4005.266 4017.419 4031.207 4045.616 4060.509 4075.864 4093.006 4108.986 4127.443 4142.68 4162.848 4177.05 4198.654 4212.364 4227.1 4244.524 4264.774 4283.205 4303.923 4324.027 4340.579 4358.753 4379.239 4384.628 4383.644 4377.463 4368.197 4359.017 4352.336 4349.533 4349.351 4344.871 4336.918 4332.941 4339.525 4345.114 4347.268 4351.322 4357.05 4361.311 4372.466 4385.867 4403.767 4426.166 4446.364 4457.513 4466.412 4471.36 4473.316 4477.342 4484.233 4487.668 4487.998 4486.407 4483.601 4481.232 4480.605 4480.828 4482.365 4484.076 4483.226 4486.185 4489.71 4494.72 4501.267 4503.189 4507.134 4509.652 4512.894 4514.73 4516.579 4519.374 4528.408 4534.188 4542.746 4550.199 4553.096 4553.969 4552.16 4550.02 4547.926 4546.237 4544.791 4542.982 4540.853 4538.625 4536.166 4533.772 4531.767 4532.172 4534.663 4536.94 4539.464 4543.648 4547.151 4551.919 4555.289 4557.946 4560.679 4562.63 4566.692 4570.752 4573.811 4576.931 4581.994 4588.056 4597.118 4611.179 4628.241 4644.302 4659.363 4670.423 4676.484 4679.544 4679.782 4677.849 4675.915 4673.981 4672.048 4673.113 4678.552 4681.57 4683.234 4684.601 4686.205 4685.135 4680.358 4674.225 4667.589 4660.654 4654.014 4648.058 4644.054 4642.442 4641.945 4642.202 4640.682 4638.157 4636.932 4636.091 4636.334 4641.311 4647.55 4653.851 4660.053 4667.269 4672.672 4677.71 4682.747 4690.782 4703.816 4719.849 4735.88 4751.91 4763.938 4767.966 4765.992 4768.017 4771.536 4780.559 4801.582 4825.603 4839.623 4845.643 4848.661 4847.679 4846.695 4852.711 4861.726 4868.741 4872.754 4876.767 4881.779 4886.791 4893.801 4902.812 4910.821 4917.83 4924.839 4930.847 4936.854 4941.862 4946.869 4952.875 4958.881 4965.887 4971.892 4978.896 4983.901 4987.906 4991.91 4996.914 5001.917 5006.92 5011.923 5016.926 5022.929 5030.931 5039.933 5050.935 5059.937 5064.938 5067.94 5069.941 5071.943 5076.934 5082.934 5093.934 5109.935 5129.935 5148.935 5169.935 5185.935 5195.935 5201.934 5208.934 5214.934 5218.933 5221.933 5222.932 5223.931 5225.931 5229.93 5237.929 5245.928 5254.928 5263.927 5269.926 5272.925 5272.924 5269.923 5266.922 5266.921 5266.92 5269.919 5275.918 5278.917 5277.916 5274.915 5270.914 5264.912 5263.911 5266.91 5268.909 5264.908 5258.906 5252.905 5244.904 5240.903 5240.901 5242.9 5243.899 5244.897 5246.896 5248.895 5251.894 5254.893 5258.892
3735.39 3736.343 3742.946 3748.261 3749.128 3748.796 3752.12 3758.369 3772.786 3781.181 3787.545 3792.775 3793.415 3796.967 3806.591 3816.877 3814.867 3818.371 3824.838 3832.653 3836.99 3842.528 3844.696 3853.052 3860.447 3870.196 3878.993 3885.878 3893.598 3905.137 3924.581 3943.01 3947.67 3955.083 3964.864 3972.296 3982.252 3992.118 4006.588 4017.271 4032.908 4046.329 4060.729 4075.802 4092.837 4109.148 4126.604 4142.702 4162.044 4178.458 4195.894 4212.438 4228.279 4248.634 4264.789 4286.793 4302.757 4321.01 4341.626 4363.276 4378.407 4377.769 4371.66 4363.868 4355.553 4348.692 4344.347 4344.954 4347.983 4345.634 4339.021 4337.081 4342.442 4348.358 4354.672 4363.333 4366.453 4372.746 4383.902 4399.405 4419.553 4444.25 4462.148 4471.464 4474.419 4477.374 4479.396 4483.53 4486.731 4488.087 4487.852 4486.286 4483.788 4482.776 4483.55 4485.324 4487.887 4490.596 4490.182 4497.083 4500.736 4501.997 4509.641 4510.831 4512.528 4518.628 4521.036 4524.954 4528.457 4541.592 4547.805 4555.448 4557.039 4560.456 4560.408 4557.662 4554.521 4550.888 4547.652 4544.899 4542.134 4539.668 4537.467 4535.297 4533.278 4531.059 4528.338 4527.725 4531.06 4536.487 4537.305 4539.874 4543.292 4546.622 4550.437 4554.186 4557.259 4560.328 4563.678 4566.738 4570.798 4575.915 4579.979 4584.042 4591.104 4603.167 4619.229 4634.291 4649.354 4660.415 4666.477 4668.704 4669.772 4668.841 4667.909 4665.977 4665.045 4666.112 4671.189 4674.835 4676.46 4677.97 4679.019 4677.57 4675.214 4670.756 4665.189 4659.259 4653.455 4648.287 4643.696 4640.744 4639.362 4639.938 4638.968 4636.235 4634.69 4634.079 4634.17 4635.078 4641.076 4648.565 4654.648 4661.987 4665.822 4673.74 4680.777 4689.813 4701.847 4716.88 4731.911 4744.941 4754.97 4757.997 4755.023 4756.533 4758.558 4767.582 4787.604 4810.625 4825.646 4833.665 4837.684 4837.701 4837.717 4843.733 4853.748 4861.762 4866.775 4871.788 4875.799 4880.811 4887.821 4895.831 4903.84 4912.849 4920.857 4927.865 4932.873 4938.879 4942.886 4947.892 4953.898 4959.903 4966.908 4972.913 4978.917 4982.921 4985.925 4990.928 4994.932 4999.935 5003.937 5008.94 5015.942 5023.944 5033.946 5045.948 5054.95 5059.951 5062.942 5065.942 5067.943 5072.943 5077.943 5087.944 5102.944 5121.944 5140.944 5161.943 5177.943 5186.943 5193.942 5200.942 5206.941 5211.941 5213.94 5215.939 5216.938 5217.938 5221.937 5229.936 5237.936 5245.935 5253.934 5258.933 5260.932 5259.93 5255.929 5250.928 5248.927 5248.926 5251.925 5256.924 5259.922 5258.921 5256.92 5251.919 5244.917 5242.916 5244.915 5245.914 5241.913 5235.911 5228.91 5220.909 5215.907 5217.906 5220.905 5223.903 5227.902 5230.901 5232.899 5235.898 5237.896 5239.896
3743.127 3745.848 3750.315 3754.825 3756.068 3754.523 3753.563 3757.118 3767.33 3778.393 3788.211 3796.112 3795.791 3798.437 3799.382 3816.426 3822.94 3826.532 3828.464 3835.205 3843.898 3846.015 3853.879 3859.124 3863.777 3869.063 3877.556 3884.692 3889.455 3900.72 3911.082 3924.796 3943.816 3952.838 3960.928 3968.92 3979.448 3991.293 4004.36 4015.47 4029.997 4042.078 4059.979 4073.514 4090.474 4106.325 4126.007 4141.93 4161.042 4177.602 4193.957 4215.439 4235.114 4249.953 4268.847 4290.942 4306.316 4326.137 4347.989 4362.826 4368.979 4367.398 4361.673 4354.89 4348.25 4343.84 4341.776 4343.708 4347.328 4347.872 4345.785 4346.375 4350.508 4361.329 4372.142 4381.46 4386.521 4391.274 4402.211 4417.594 4433.142 4451.038 4466.683 4472.479 4475.433 4478.387 4481.479 4484.279 4486.572 4486.882 4486.572 4486.315 4484.749 4484.229 4485.354 4488.243 4491.451 4494.544 4498.038 4502.645 4514.445 4515.118 4520.296 4521.712 4526.369 4528.921 4535.198 4557.798 4554.636 4554.586 4562.062 4568.874 4569.646 4569.641 4567.532 4563.821 4560.086 4556.013 4552.321 4548.936 4545.042 4541.416 4538.411 4536.042 4534.779 4532.885 4530.399 4528.584 4530.014 4531.257 4534.624 4536.261 4538.949 4542.27 4545.888 4550.711 4554.256 4557.704 4561.499 4565.725 4569.785 4573.9 4578.964 4582.027 4587.091 4599.154 4616.217 4630.28 4642.343 4651.406 4655.479 4657.542 4659.762 4660.832 4660.902 4660.972 4660.041 4663.313 4665.5 4667.412 4669.106 4670.821 4672.301 4671.663 4670.68 4668.267 4663.951 4659.018 4654.115 4649.194 4644.289 4639.873 4636.842 4637.462 4636.648 4634.177 4632.723 4632.008 4632.614 4634.806 4639.932 4646.071 4651.726 4659.021 4664.237 4671.771 4677.809 4685.845 4694.879 4705.912 4716.944 4728.974 4739.002 4745.03 4750.531 4755.557 4759.582 4765.605 4778.628 4792.649 4803.669 4812.688 4820.707 4825.724 4830.74 4837.755 4846.77 4853.784 4859.797 4865.809 4869.82 4874.831 4881.841 4888.851 4897.86 4906.869 4916.876 4923.884 4929.891 4933.897 4937.904 4941.91 4947.915 4953.92 4960.924 4967.929 4973.933 4977.937 4981.94 4984.943 4987.946 4991.949 4997.951 5003.954 5010.956 5018.958 5027.959 5037.951 5045.951 5051.952 5056.953 5060.953 5064.953 5069.953 5074.953 5083.953 5096.953 5112.953 5130.953 5150.952 5165.952 5174.951 5180.951 5187.95 5193.949 5198.949 5202.948 5206.947 5209.946 5211.945 5216.944 5222.943 5228.942 5234.941 5239.94 5242.939 5242.938 5242.937 5238.936 5236.934 5234.933 5234.932 5235.931 5239.929 5240.928 5239.927 5236.925 5231.924 5224.923 5220.921 5219.92 5218.918 5215.917 5212.916 5206.915 5200.913 5196.912 5197.911 5200.909 5204.908 5210.906 5214.905 5217.903 5219.902 5221.901 5224.899
3750.277 3752.77 3754.865 3758.334 3760.534 3762.385 3760.118 3759.401 3764.32 3774.215 3782.313 3797.237 3801.295 3799.808 3807.575 3809.023 3822.025 3828.108 3833.702 3837.379 3848.886 3852.819 3855.203 3857.165 3864.852 3871.087 3874.061 3880.765 3889.023 3897.152 3909.839 3917.487 3932.817 3946.217 3953.611 3964.085 3976.351 3986.528 3999.079 4011.542 4025.552 4039.669 4056.265 4070.775 4087.389 4105.449 4123.92 4142.459 4161.632 4179.537 4195.184 4213.479 4235.744 4253.589 4269.805 4287.939 4311.485 4328.463 4345.348 4356.564 4359.746 4359.461 4356.351 4351.528 4347.902 4345.338 4342.426 4343.456 4347.173 4350.455 4354.134 4369.296 4376.52 4400.386 4406.348 4410.438 4416.297 4419.376 4424.285 4433.176 4444.468 4455.578 4466.721 4472.495 4476.23 4478.925 4481.297 4483.551 4485.304 4485.834 4486.099 4486.758 4487.233 4487.511 4490.17 4494.36 4496.949 4499.01 4504.362 4509.301 4523.804 4524.62 4533.676 4538.228 4539.219 4541.079 4542.115 4545.463 4554.263 4560.008 4574.674 4577.219 4577.032 4577.057 4573.855 4569.869 4566.1 4562.232 4558.287 4554.364 4550.4 4546.557 4542.779 4539.823 4538.503 4537.312 4534.881 4533.341 4533.354 4533.467 4534.244 4534.933 4537.722 4539.646 4543.482 4548.928 4552.751 4556.133 4560.5 4564.825 4569.772 4573.885 4577.949 4581.013 4585.076 4597.14 4613.204 4626.269 4635.333 4642.406 4645.47 4646.535 4649.751 4651.823 4653.894 4656.692 4656.475 4657.2 4658.692 4659.433 4660.566 4662.111 4665.903 4667.663 4668.276 4667.313 4663.897 4659.317 4654.239 4648.893 4643.644 4638.466 4634.14 4634.559 4633.963 4631.767 4630.236 4629.71 4632.019 4635.562 4639.955 4645.691 4650.647 4658.191 4662.369 4667.897 4674.841 4680.878 4687.913 4694.946 4702.977 4712.007 4722.5 4733.529 4744.556 4753.582 4760.606 4765.63 4770.652 4775.673 4783.693 4794.712 4804.73 4814.748 4823.763 4832.778 4840.793 4847.806 4853.819 4859.831 4864.842 4869.853 4875.862 4882.872 4891.88 4901.888 4910.896 4918.903 4923.91 4928.916 4931.922 4934.927 4940.932 4947.937 4954.941 4962.945 4968.949 4973.952 4976.956 4979.958 4981.961 4985.963 4991.966 4998.968 5005.959 5013.96 5021.961 5028.962 5036.962 5042.963 5049.963 5055.963 5061.963 5066.963 5072.963 5079.963 5090.962 5103.962 5119.961 5137.961 5151.96 5160.96 5166.959 5172.958 5177.958 5183.957 5190.956 5196.955 5201.954 5204.953 5209.952 5215.95 5219.949 5222.948 5224.947 5224.945 5224.944 5223.943 5222.942 5221.94 5221.939 5221.938 5222.937 5223.935 5223.934 5222.932 5219.931 5214.929 5207.928 5201.927 5198.925 5195.924 5194.922 5192.921 5189.919 5184.918 5181.917 5180.915 5182.914 5187.912 5194.911 5199.909 5201.908 5203.906 5206.905 5209.903
3756.185 3760.243 3761.16 3765.493 3769.319 3769.81 3764.608 3763.08 3765.632 3770.497 3775.146 3781.291 3796.176 3800.402 3806.831 3822.152 3822.842 3826.583 3835.554 3842.334 3850.67 3853.92 3857.22 3859.411 3863.761 3868.304 3877.091 3883.64 3886.424 3892.611 3900.295 3913.48 3930.28 3940.999 3951.9 3962.448 3973.933 3985.051 3996.232 4009.665 4024.742 4038.002 4054.588 4071.774 4088.916 4105.989 4123.119 4141.756 4161.704 4179.956 4197.975 4215.919 4237.023 4253.225 4268.202 4288.74 4307.429 4322.995 4339.057 4350.851 4355.463 4356.968 4357.211 4354.738 4353.124 4351.454 4349.093 4349.439 4351.997 4354.352 4387.193 4419.893 4427.584 4447.688 4444.829 4447.215 4446.726 4447.967 4449.442 4454.19 4459.922 4463.803 4470.718 4473.003 4475.704 4477.853 4479.887 4481.884 4483.801 4484.853 4486.135 4487.559 4489.218 4491.184 4496.054 4501.215 4504.86 4506.693 4515.682 4517.003 4533.564 4536.519 4547.66 4552.267 4550.976 4553.121 4559.638 4582.965 4578.924 4581.247 4580.311 4579.114 4577.327 4575.934 4574.081 4571.168 4568.658 4565.683 4561.594 4557.352 4553.544 4550.44 4547.666 4545.624 4544.008 4542.684 4541.346 4540.217 4538.857 4538.015 4536.203 4537.29 4538.97 4540.639 4543.846 4549.512 4553.464 4557.188 4562.014 4566 4571.289 4573.772 4577.933 4580.997 4585.062 4595.126 4608.19 4619.255 4629.33 4635.395 4638.46 4639.526 4640.739 4642.812 4646.8 4648.547 4649.61 4649.864 4650.716 4650.734 4651.6 4653.102 4656.317 4661.285 4664.697 4666.154 4662.875 4658.415 4652.977 4646.777 4640.859 4635.397 4630.809 4631.579 4631.658 4629.178 4627.327 4627.876 4632.783 4636.644 4641.447 4645.518 4651.07 4656.438 4660.551 4663.704 4669.875 4675.912 4681.947 4686.98 4694.012 4701.495 4710.525 4721.554 4734.582 4745.608 4754.632 4760.656 4763.678 4766.699 4773.719 4783.737 4794.755 4806.772 4818.788 4827.802 4834.816 4841.83 4848.842 4855.853 4860.864 4865.874 4871.884 4878.893 4886.901 4895.909 4903.916 4909.923 4914.929 4919.935 4922.94 4926.945 4933.95 4941.954 4949.958 4957.962 4963.965 4968.968 4972.971 4974.974 4976.976 4980.968 4987.969 4994.971 5001.971 5007.972 5014.973 5019.973 5026.974 5035.974 5043.974 5051.974 5058.974 5064.973 5069.973 5075.973 5084.972 5094.971 5107.971 5123.97 5137.969 5145.968 5151.967 5156.966 5160.965 5167.964 5177.963 5186.962 5192.961 5197.96 5201.958 5204.958 5207.956 5208.955 5209.954 5209.952 5206.951 5205.949 5205.948 5206.946 5208.945 5209.944 5210.942 5211.941 5210.939 5209.938 5206.936 5201.935 5195.933 5189.932 5184.93 5181.929 5180.927 5180.926 5178.924 5175.922 5172.921 5168.919 5167.918 5171.917 5177.915 5182.914 5185.912 5187.911 5189.909 5191.907
3762.362 3765.667 3766.98 3772.496 3777.448 3777.766 3775.609 3772.879 3773.203 3782.791 3777.317 3779.463 3788.872 3796.746 3800.775 3813.744 3830.696 3833.352 3832.177 3839.3 3854.701 3857.853 3858.036 3863.216 3868.05 3868.514 3876.761 3883.014 3890.694 3893.703 3900.232 3907.489 3923.378 3938.031 3951.199 3961.401 3973.403 3983.797 3997.196 4011.13 4025.836 4040.519 4056.221 4070.538 4088.115 4104.644 4122.859 4134.351 4152.906 4168.804 4191.559 4210.806 4233.465 4246.389 4265.308 4287.849 4303.067 4316.656 4331.488 4346.674 4357.186 4363.105 4367.544 4369.17 4369.847 4370.184 4371.438 4374.498 4383.314 4415.555 4440.385 4453.651 4454.105 4458.751 4460.348 4462.5 4461.915 4464.287 4464.783 4465.453 4463.559 4465.583 4470.155 4471.941 4473.174 4474.744 4476.628 4479.309 4481.5 4483.506 4485.971 4487.745 4490.355 4493.444 4498.072 4503.095 4511.309 4517.339 4526.197 4526.649 4540.757 4551.426 4555.768 4565.298 4561.88 4567.304 4569.555 4573.338 4571.599 4570.869 4574.002 4571.878 4567.773 4564.531 4564.151 4564.068 4563.998 4563.945 4562.997 4560.83 4557.228 4554.764 4552.731 4551.076 4550.539 4550.396 4548.14 4546.911 4545.157 4542.513 4540.896 4541.849 4542.339 4543.848 4546.854 4550.986 4554.071 4558.123 4562.859 4567.375 4571.809 4576.563 4580.85 4581.98 4586.045 4594.11 4603.176 4612.25 4622.316 4629.382 4632.449 4632.516 4636.062 4636.797 4638.24 4640.217 4641.783 4642.992 4643.705 4644.105 4644.781 4645.518 4648.081 4653.643 4657.39 4660.459 4658.81 4654.486 4649.564 4643.61 4636.559 4630.76 4627.154 4627.938 4628.061 4625.736 4623.919 4625.77 4634.812 4639.42 4642.926 4646.194 4651.409 4655.655 4658.322 4660.464 4663.911 4669.948 4674.983 4681.017 4687.49 4693.522 4700.553 4711.582 4724.609 4735.635 4746.659 4754.683 4758.705 4760.726 4766.745 4777.763 4788.781 4800.797 4813.812 4822.827 4829.84 4836.853 4844.865 4851.876 4856.887 4861.896 4867.905 4874.914 4881.922 4888.929 4895.936 4900.942 4904.948 4908.954 4913.959 4918.963 4926.968 4934.972 4943.976 4951.979 4958.982 4963.984 4967.977 4970.979 4972.98 4977.981 4984.982 4991.983 4996.983 5001.984 5006.984 5011.984 5017.985 5027.984 5037.984 5046.984 5055.984 5061.983 5066.983 5072.982 5078.981 5085.98 5096.98 5109.979 5121.978 5129.977 5136.976 5140.975 5143.974 5151.972 5164.971 5175.97 5183.969 5188.967 5191.966 5192.964 5193.963 5195.961 5195.96 5194.958 5190.957 5189.956 5189.954 5191.953 5194.951 5198.95 5200.948 5200.946 5199.945 5198.943 5195.941 5191.94 5185.938 5180.937 5175.935 5171.934 5170.932 5171.931 5170.929 5168.927 5165.926 5159.924 5155.922 5156.921 5161.919 5165.917 5168.916 5171.915 5172.913 5174.911
3771.227 3772.307 3774.029 3779.092 3784.743 3787.188 3790.492 3791.188 3777.691 3779.74 3785.664 3789.986 3795.288 3802.723 3808.768 3817.29 3833.714 3838.476 3839.383 3842.954 3845.39 3862.387 3865.341 3867.452 3867.159 3874.556 3880.097 3887.348 3892.616 3898.553 3904.887 3911.187 3923.32 3940.505 3951.014 3961.999 3974.938 3989.057 4001.97 4014.001 4029.603 4038.817 4053.181 4072.283 4088.338 4102.753 4119.963 4137.292 4156.674 4174.889 4194.387 4212.052 4236.682 4246.766 4263.966 4280.06 4295.645 4311.834 4328.289 4346.557 4359.038 4366.378 4373.291 4378.824 4382.509 4385.384 4393.536 4398.594 4416.49 4439.624 4446.107 4448.407 4448.299 4449.812 4451.486 4454.498 4455.433 4459.509 4463.219 4460.604 4459.642 4460.768 4463.259 4466.495 4469.546 4471.765 4473.686 4476.494 4479.245 4482.469 4486.352 4489.782 4493.542 4498.41 4502.229 4506.886 4520.281 4532.324 4537.834 4538.645 4537.946 4555.109 4559.146 4563.748 4565.881 4577.374 4578.339 4580.344 4576.804 4568.475 4566.369 4563.546 4557.756 4552.76 4549.453 4549.99 4552.127 4554.087 4556.82 4559.255 4559.847 4559.865 4558.999 4557.579 4555.905 4556.198 4554.89 4553.418 4551.688 4549.02 4546.934 4545.538 4546.286 4547.073 4548.258 4550.013 4552.075 4555.428 4560.683 4566.592 4571.629 4575.795 4579.235 4582.203 4587.603 4594.547 4601.823 4608.562 4617.235 4623.917 4626.766 4627.376 4629.458 4630.703 4631.151 4632.504 4634.19 4634.927 4635.792 4637.407 4638.833 4638.454 4638.732 4640.658 4644.329 4648.153 4648.904 4645.341 4641.831 4637.063 4629.764 4624.691 4622.506 4622.948 4622.702 4621.172 4619.708 4621.468 4633.365 4640.998 4643.683 4645.808 4649.496 4654.576 4655.964 4658.115 4661.824 4665.985 4671.021 4677.484 4683.518 4688.55 4694.581 4704.61 4716.637 4727.663 4739.688 4749.71 4754.732 4757.753 4763.772 4772.79 4782.807 4794.823 4805.838 4814.852 4822.865 4830.877 4839.889 4846.9 4852.91 4857.919 4863.928 4869.936 4874.943 4880.95 4885.957 4890.963 4893.968 4898.973 4904.978 4911.982 4919.986 4928.99 4936.993 4944.986 4951.988 4956.99 4960.991 4965.993 4969.994 4974.994 4981.995 4987.996 4992.996 4996.996 5000.996 5003.996 5009.996 5018.996 5028.995 5038.995 5048.994 5057.994 5063.993 5068.992 5073.991 5078.99 5086.989 5097.988 5107.987 5115.985 5121.984 5125.983 5127.981 5135.98 5148.979 5161.978 5170.976 5177.975 5181.973 5182.972 5183.97 5184.968 5184.967 5182.965 5178.963 5176.962 5176.96 5177.958 5181.957 5185.956 5187.954 5187.952 5187.95 5186.949 5184.947 5180.945 5175.944 5171.942 5165.94 5161.938 5159.937 5159.935 5158.934 5156.932 5154.93 5149.929 5145.927 5145.925 5147.923 5150.922 5152.92 5155.918 5156.917 5158.916
3777.48 3778.326 3780.479 3785.249 3792.549 3798.751 3802.489 3804.169 3788.828 3788.71 3788.231 3791.809 3804.101 3810.803 3827.791 3835.236 3838.25 3842.685 3845.093 3848.894 3853.881 3861.078 3864.341 3869.941 3873.85 3879.462 3880.391 3888.231 3892.458 3900.264 3904.842 3918.452 3932.07 3943.384 3954.348 3965.271 3976.927 3988.441 4000.168 4010.416 4022.783 4035.006 4050.979 4065.198 4082.245 4098.005 4116.306 4133.768 4152.709 4170.103 4189.722 4207.752 4226.476 4240.865 4256.976 4271.984 4290.298 4306.206 4323.542 4339.25 4351.282 4358.321 4364.034 4373.693 4384.49 4391.167 4399.83 4406.314 4417.659 4424.545 4428.957 4431.938 4431.851 4433.585 4436.628 4440.208 4440.637 4443.201 4449.547 4448.11 4448.657 4451.57 4454.066 4455.336 4458.906 4464.024 4470.574 4474.087 4477.468 4481.527 4486.136 4492.52 4497.584 4502.869 4508.064 4516.422 4528.917 4538.01 4542.646 4547.565 4548.753 4557.524 4561.704 4564.561 4571.416 4572.22 4573.681 4574.138 4569.067 4563.046 4560.719 4556.532 4549.766 4542.827 4537.956 4537.254 4538.39 4540.084 4543.353 4547.428 4551.614 4555.551 4557.907 4559.567 4560.324 4561.135 4560.262 4558.784 4556.926 4554.354 4552.244 4551.542 4550.062 4549.075 4549.8 4551.193 4552.457 4554.222 4559.564 4564.844 4569.721 4574.247 4577.408 4583.45 4588.668 4592.477 4596.69 4601.875 4609.314 4615.844 4619.286 4620.64 4622.064 4623.746 4623.549 4624.302 4626.357 4627.131 4628.185 4628.824 4629.882 4629.626 4629.841 4630.222 4634.521 4641.563 4639.958 4635.176 4632.609 4628.741 4623.01 4618.711 4616.588 4616.303 4616.453 4615.886 4614.651 4615.12 4632.364 4639.113 4642.269 4643.953 4646.711 4651.585 4654.281 4656.417 4659.951 4663.024 4668.478 4674.514 4680.548 4685.58 4691.61 4700.639 4710.667 4722.692 4734.717 4744.739 4751.761 4756.781 4763.8 4770.818 4778.834 4786.85 4795.865 4804.878 4814.891 4823.903 4832.914 4841.924 4847.934 4852.942 4858.951 4863.958 4867.965 4871.972 4875.978 4879.983 4883.988 4889.993 4896.997 4905.001 4912.995 4920.998 4929 4936.001 4942.003 4948.004 4954.005 4961.006 4967.007 4973.008 4979.008 4985.008 4989.008 4993.008 4996.008 4999.008 5003.007 5009.007 5017.006 5028.005 5041.004 5051.003 5060.002 5067.001 5070 5073 5078.998 5086.997 5094.996 5100.994 5105.993 5109.991 5111.99 5119.988 5131.987 5144.985 5155.983 5164.982 5170.98 5173.979 5175.977 5176.975 5176.974 5173.972 5168.97 5166.968 5164.967 5164.965 5166.963 5170.961 5172.959 5174.958 5174.956 5174.954 5172.953 5170.951 5166.949 5162.947 5157.945 5152.943 5148.942 5144.94 5142.938 5141.937 5140.935 5138.933 5136.931 5135.93 5135.928 5136.926 5137.924 5138.923 5142.921 5146.919
3784.393 3785.076 3787.734 3793.514 3798.524 3805.961 3812.19 3816.625 3797.916 3798.704 3801.205 3800.6 3815.864 3826.376 3839.285 3843.771 3846.064 3849.203 3854.973 3863.166 3860.558 3867.585 3869.39 3869.565 3874.039 3881.315 3889.249 3895.744 3893.444 3897.822 3909.203 3916.001 3927.124 3941.271 3950.42 3961.529 3973.102 3983.278 3993.041 4004.214 4016.908 4031.655 4047.846 4061.811 4078.461 4094.552 4112.289 4129.689 4148.07 4166.08 4184.252 4197.327 4208.699 4234.141 4254.098 4267.59 4284.859 4300.24 4314.988 4327.361 4335.998 4341.972 4349.346 4360.453 4372.751 4381.973 4390.981 4397.507 4402.08 4405.382 4409.828 4412.154 4411.754 4415.476 4421.44 4424.829 4426.146 4427.77 4433.869 4433.546 4435.38 4441.114 4446.802 4444.81 4447.229 4454.906 4464.586 4471.797 4476.106 4480.907 4485.371 4492.781 4499.099 4504.37 4511.046 4520.641 4528.038 4534.618 4539.892 4544.56 4548.436 4557.503 4558.6 4561.915 4564.26 4563.872 4566.037 4566.389 4561.36 4554.92 4550.525 4547.688 4539.145 4531.425 4528.552 4527.417 4527.484 4529.096 4531.521 4534.115 4537.935 4542.283 4549.221 4553.876 4557.249 4559.135 4560.154 4561.089 4560.49 4558.793 4557.225 4555.341 4553.107 4552.499 4552.973 4554.009 4555.2 4557.331 4559.399 4563.722 4568.273 4572.017 4575.363 4582.604 4587.054 4589.159 4591.922 4594.938 4599.76 4603.977 4610.422 4612.31 4612.203 4611.98 4614.443 4616.923 4621.795 4622.937 4623.768 4623.068 4621.478 4621.142 4620.98 4620.466 4621.695 4629.695 4633.037 4627.333 4622.901 4619.822 4616.417 4613.218 4611.3 4609.949 4608.841 4608.627 4608.336 4608.428 4620.705 4634.898 4637.168 4639.455 4641.917 4646.457 4649.564 4653.362 4658.02 4662.563 4665.508 4671.544 4676.579 4682.611 4688.642 4696.67 4706.697 4717.723 4728.747 4739.77 4747.791 4755.811 4762.829 4768.846 4775.863 4781.878 4787.892 4796.905 4807.917 4817.929 4826.939 4835.949 4841.958 4847.966 4852.974 4857.981 4861.988 4863.994 4866.999 4871.004 4875.009 4881.003 4889.006 4898.009 4906.012 4913.014 4921.015 4927.017 4934.018 4941.019 4949.02 4957.021 4964.021 4971.021 4976.021 4980.021 4984.021 4988.021 4991.02 4993.02 4997.019 5001.018 5007.017 5017.016 5031.015 5043.014 5053.013 5060.011 5064.01 5065.009 5070.007 5077.006 5083.004 5087.003 5091.001 5095 5097.998 5104.996 5115.995 5127.993 5138.991 5148.989 5156.987 5160.986 5163.984 5164.982 5164.98 5161.979 5156.977 5153.975 5151.973 5150.971 5152.969 5154.967 5157.965 5159.963 5160.961 5160.959 5159.958 5156.956 5153.954 5150.952 5145.95 5140.948 5134.947 5129.945 5126.943 5125.941 5125.939 5126.938 5126.936 5125.934 5123.932 5122.93 5122.929 5123.927 5127.925 5133.923
3794.298 3793.743 3795.872 3800.208 3802.885 3811.05 3819.874 3825.843 3813.377 3814.083 3826.747 3815.636 3834.099 3842.042 3852.621 3850.149 3857.318 3855.993 3864.443 3865.337 3865.876 3873.279 3874.818 3875.221 3877.108 3878.575 3883.743 3891.285 3897.052 3902.824 3913.85 3917.627 3925.799 3930.525 3945.357 3956.188 3968.51 3980.293 3990.94 4002.132 4015.571 4029.369 4043.699 4058.15 4076.066 4090.725 4108.833 4126.35 4145.876 4158.219 4168.173 4189.87 4210.557 4226.097 4242.015 4255.173 4271.831 4289.175 4303.999 4315.126 4321.117 4325.919 4334.441 4348.143 4360.044 4369.472 4375.446 4379.625 4384.133 4387.762 4392.423 4392.757 4393.948 4399.849 4405.521 4408.832 4410.828 4416.396 4419.788 4419.367 4421.012 4428.664 4437.98 4437.344 4440.393 4449.95 4460.645 4469.662 4474.516 4481.192 4487.187 4493.228 4500.431 4505.787 4511.056 4519.58 4527.105 4532.071 4536.845 4541.505 4545.365 4547.698 4550.93 4553.043 4554.142 4555.438 4559.637 4562.011 4555.007 4546.577 4542.312 4538.006 4528.8 4519.474 4517.582 4516.07 4516.477 4516.846 4517.159 4520.46 4524.368 4526.049 4528.859 4535.079 4540.871 4549.194 4556.115 4559.824 4559.792 4559.905 4559.738 4559.305 4557.531 4555.526 4555.406 4556.354 4557.369 4558.307 4560.356 4562.959 4566.064 4569.854 4572.751 4576.564 4581.455 4584.336 4585.877 4587.881 4591.681 4596.139 4599.81 4601.156 4601.803 4603.32 4607.886 4614.252 4617.828 4619.418 4620.396 4618.377 4615.029 4613.081 4613.003 4612.903 4611.152 4617.351 4623.161 4617.667 4613.091 4609.725 4606.584 4604.521 4604.854 4604.02 4602.003 4600.917 4601.11 4601.617 4604.811 4624.706 4628.009 4631.167 4634.682 4639.225 4643.619 4648.695 4654.171 4658.484 4661.541 4667.577 4673.611 4678.644 4685.674 4693.703 4703.729 4713.755 4725.779 4735.801 4743.822 4750.841 4758.859 4766.876 4773.892 4778.906 4784.92 4793.933 4803.944 4812.955 4821.965 4829.974 4835.983 4840.991 4846.998 4852.004 4856.01 4859.016 4861.012 4864.015 4868.019 4874.021 4882.024 4889.026 4897.028 4904.03 4911.031 4920.032 4928.033 4938.034 4948.034 4955.035 4961.035 4966.035 4970.034 4973.034 4978.033 4982.033 4986.032 4988.031 4991.03 4994.029 4998.028 5008.027 5020.025 5031.024 5041.022 5049.021 5053.02 5055.018 5060.017 5066.015 5071.013 5074.011 5077.01 5081.008 5085.006 5092.004 5100.002 5110 5118.999 5128.997 5135.995 5141.993 5145.991 5147.989 5146.987 5144.985 5139.983 5137.981 5135.979 5135.977 5137.975 5139.973 5141.971 5143.969 5144.967 5144.965 5143.963 5141.961 5137.959 5133.958 5129.956 5124.954 5117.952 5111.95 5108.948 5109.946 5110.944 5112.942 5113.94 5112.938 5110.937 5109.935 5109.933 5110.931 5114.929 5118.927
3803.631 3802.48 3802.976 3805.545 3807.707 3817.266 3824.141 3832.746 3833.119 3830.809 3842.164 3829.962 3842.031 3857.218 3860.928 3863.129 3867.163 3868.423 3870.62 3873.359 3880.961 3878.712 3883.595 3883.966 3891.697 3895.325 3890.703 3892.035 3896.149 3900.68 3904.239 3914.432 3922.351 3934.583 3941.447 3953.062 3967.24 3977.847 3989.774 4002.808 4015.476 4026.939 4040.727 4055.236 4072.98 4089.298 4107.748 4124.103 4137.784 4147.783 4170.409 4186.169 4201.994 4216.027 4230.749 4245.385 4260.522 4276.095 4289.152 4298.188 4305.336 4314.004 4322.801 4338.584 4348.363 4355.644 4361.509 4365.226 4368.367 4371.146 4375.215 4377.259 4378.588 4384.639 4388.015 4391.519 4396.551 4405.426 4406.699 4406.032 4407.368 4413.63 4423.661 4429.293 4435.598 4447.701 4458.885 4467.889 4473.7 4480.834 4488.182 4492.856 4499.823 4505.741 4509.94 4516.657 4523.055 4529.959 4533.294 4535.358 4537.668 4538.182 4540.271 4542.562 4544.214 4547.476 4550.725 4552.505 4549.682 4545.114 4537.2 4529.102 4522.985 4514.035 4509.175 4508.947 4507.585 4506.347 4507.485 4510.191 4511.95 4515.928 4517.159 4519.519 4523.062 4527.833 4537.035 4546.563 4557.347 4558.049 4558.468 4559.195 4558.447 4557.557 4558.292 4558.688 4558.86 4560.872 4563.283 4564.028 4566.126 4568.678 4571.199 4575.328 4578.565 4580.799 4581.361 4582.226 4583.705 4585.892 4588.645 4589.419 4592.065 4594.718 4597.884 4610.294 4614.796 4614.646 4612.519 4609.95 4606.767 4603.738 4607.167 4610.439 4609.19 4611.544 4612.179 4608.152 4604.682 4600.755 4597.228 4595.845 4596.636 4597.597 4596.403 4594.832 4594.168 4595.206 4595.932 4605.719 4616.624 4621.664 4625.659 4630.819 4637.288 4643.652 4648.902 4653.487 4658.655 4664.018 4668.646 4674.678 4681.708 4690.736 4699.763 4709.788 4720.812 4730.833 4737.854 4744.873 4752.89 4761.906 4769.921 4775.936 4782.949 4790.96 4798.972 4807.982 4815.991 4823 4829.008 4834.015 4840.022 4845.019 4850.023 4853.028 4856.031 4859.035 4862.038 4867.04 4874.042 4882.044 4888.045 4894.046 4902.047 4912.048 4923.048 4935.049 4946.049 4953.049 4957.048 4961.048 4963.047 4966.047 4971.046 4977.045 4981.044 4984.043 4986.042 4988.041 4992.039 4999.038 5009.036 5019.034 5027.033 5035.031 5040.029 5044.027 5049.026 5054.024 5059.022 5061.02 5063.018 5068.016 5073.014 5080.012 5086.01 5093.008 5100.006 5107.004 5114.002 5121 5124.998 5126.996 5126.994 5124.991 5121.989 5119.987 5119.985 5119.983 5121.981 5123.979 5125.977 5126.975 5126.973 5126.971 5125.969 5122.966 5118.964 5114.962 5109.96 5104.958 5098.957 5092.954 5091.952 5092.95 5094.948 5096.946 5097.944 5097.942 5096.94 5095.938 5096.937 5097.935 5100.933 5104.931
3811.735 3811.221 3812.89 3814.953 3815.542 3821.095 3830.073 3838.808 3857.448 3846.377 3853.997 3848.166 3861.864 3872.17 3871.675 3874.294 3877.459 3877.321 3882.272 3884.472 3885.634 3886.992 3895.442 3901.64 3911.053 3912.378 3908.881 3908.48 3909.101 3916.38 3922.179 3920.989 3924.979 3934.301 3948.771 3953.08 3966.449 3977.496 3989.387 4002.025 4014.156 4026.159 4041.361 4055.491 4072.441 4089.213 4102.153 4118.033 4129.8 4145.322 4161.83 4175.876 4190.664 4203.799 4220.782 4234.863 4248.797 4261.701 4273.724 4280.009 4286.506 4300.063 4313.871 4325.571 4333.323 4339.776 4345.239 4348.05 4352.007 4354.88 4357.605 4360.326 4364.184 4366.686 4370.96 4374.938 4380.757 4390.388 4392.549 4393.176 4394.179 4398.748 4407.895 4418.007 4429.311 4442.331 4453.99 4465.303 4473.282 4479.582 4486.216 4491.042 4497.527 4503.777 4508.162 4513.336 4519.087 4523.24 4525.636 4526.465 4528.228 4530.479 4532.034 4533.207 4536.457 4540.598 4544.805 4548.171 4545.601 4540.375 4531.089 4523.264 4517.272 4508.831 4504.639 4504.243 4501.38 4498.04 4497.823 4498.709 4500.28 4504.085 4506.359 4508.905 4511.559 4514.924 4519.634 4528.34 4544.601 4551.993 4547.574 4552.627 4555.364 4556.212 4556.459 4556.355 4557.95 4561.984 4565.717 4566.038 4565.674 4565.738 4568.847 4572.702 4574.493 4576.18 4577.01 4577.354 4577.293 4579.336 4579.287 4579.195 4582.964 4588.419 4596.199 4604.522 4608.674 4606.74 4604.125 4601.176 4599.604 4599.743 4601.718 4604.062 4603.979 4603.124 4601.255 4598.401 4595.597 4592.087 4588.532 4587.586 4588.766 4589.934 4589.394 4588.469 4587.963 4589.025 4590.57 4594.268 4605.354 4612.077 4616.577 4624.635 4631.305 4638.19 4643.542 4648.897 4654.658 4659.522 4665.122 4670.714 4677.744 4685.772 4693.798 4701.823 4711.846 4720.867 4727.887 4733.905 4741.922 4751.938 4759.953 4767.966 4774.978 4782.99 4790 4799.01 4808.019 4817.026 4823.025 4828.031 4832.036 4836.041 4839.044 4844.048 4849.051 4853.054 4857.056 4862.058 4868.06 4875.062 4880.062 4886.063 4894.063 4904.064 4915.064 4927.064 4939.063 4946.063 4951.062 4956.062 4959.061 4963.06 4968.059 4974.058 4978.056 4981.055 4984.053 4987.052 4990.05 4996.048 5002.046 5009.045 5015.043 5021.041 5026.039 5030.037 5035.035 5040.033 5044.031 5048.029 5051.026 5057.024 5065.022 5071.02 5076.018 5081.016 5084.014 5087.011 5091.009 5097.007 5101.004 5104.002 5107 5106.998 5104.996 5103.994 5103.991 5103.989 5104.987 5105.985 5106.982 5106.98 5105.978 5104.976 5102.974 5100.972 5096.97 5092.967 5088.965 5084.963 5078.961 5074.959 5072.957 5074.955 5076.953 5078.951 5079.949 5079.947 5078.945 5078.943 5079.941 5081.939 5084.937 5088.935
3821.504 3821.89 3822.836 3823.757 3823.079 3827.96 3833.635 3842.648 3851.865 3855.559 3862.192 3861.496 3871.91 3881.577 3882.73 3884.157 3888.561 3887.58 3892.47 3895.816 3895.734 3896.563 3902.91 3912.286 3920.666 3926.772 3935.267 3934.13 3938.435 3933.879 3945.558 3946.339 3941.804 3943.863 3951.396 3959.758 3967.348 3978.619 3989.871 4000.816 4014.124 4026.763 4041.307 4054.963 4069.848 4081.099 4095.885 4106.735 4124.011 4138.754 4152.714 4165.932 4181.863 4196.622 4211.015 4223.185 4237.027 4247.305 4258.228 4260.996 4276.482 4289.1 4302.31 4310.596 4317.046 4322.535 4327.851 4333.177 4336.108 4339.018 4341.667 4346.076 4349.623 4349.768 4354.083 4358.729 4366.563 4374.67 4378.138 4379.401 4381.267 4386.09 4395.198 4405.4 4417.239 4431.469 4445.275 4459.016 4470.631 4476.517 4483.287 4489.371 4495.323 4500.945 4505.174 4508.496 4512.897 4515.284 4517.198 4517.774 4519.814 4522.274 4525.379 4527.965 4530.297 4535.076 4542.343 4546.211 4540.044 4531.776 4523.184 4518.164 4511.166 4504.595 4500.474 4500.585 4497.88 4494.446 4492.272 4490.854 4491.328 4491.633 4494.739 4498.554 4500.206 4502.526 4509.661 4515.253 4523.54 4529.185 4527.397 4535.324 4541.645 4548.457 4549.853 4548.257 4550.034 4554.887 4559.185 4561.378 4561.859 4561.304 4562.844 4568.787 4570.671 4570.203 4570.029 4570.843 4571.209 4571.182 4571.586 4572.256 4575.034 4580.245 4586.135 4595.964 4596.088 4595.243 4592.117 4592.148 4593.929 4595.158 4598.442 4598.495 4596.716 4593.92 4590.803 4589.64 4587 4583.33 4579.804 4580.2 4582.677 4583.175 4582.749 4582.392 4582.663 4583.801 4586.038 4589.21 4596.388 4604.225 4609.869 4619.747 4625.814 4632.311 4638.675 4644.72 4650.332 4654.857 4660.112 4665.751 4673.781 4679.809 4685.834 4691.859 4699.881 4706.902 4713.921 4720.939 4728.955 4737.97 4746.984 4756.997 4766.009 4773.02 4779.029 4787.029 4799.037 4810.043 4817.049 4822.054 4825.059 4825.062 4827.066 4834.069 4841.072 4847.074 4853.076 4858.077 4863.078 4868.079 4874.08 4879.08 4887.08 4896.08 4906.08 4916.079 4927.079 4936.078 4944.077 4951.076 4956.074 4962.073 4966.072 4970.07 4975.068 4979.067 4983.065 4987.063 4991.061 4994.059 4997.057 4999.055 5002.053 5005.051 5010.049 5015.046 5020.044 5024.042 5029.04 5034.037 5040.035 5048.033 5058.03 5065.028 5069.026 5071.023 5071.021 5069.019 5069.016 5071.014 5074.012 5080.009 5085.007 5087.004 5088.002 5088 5086.998 5086.995 5086.993 5086.991 5085.988 5084.986 5082.984 5079.981 5077.979 5075.977 5072.975 5069.973 5065.97 5061.968 5057.966 5054.964 5054.961 5055.959 5057.958 5058.955 5058.953 5058.951 5058.949 5059.947 5060.945 5063.943 5066.941 5071.939
3831.865 3832.205 3833.591 3834.045 3836.471 3835.087 3842.466 3856.954 3858.884 3865.916 3875.336 3881.427 3881.32 3892.728 3894.278 3894.982 3898.461 3899.202 3905.007 3908.692 3906.965 3909.175 3911.563 3921.472 3932.306 3952.707 3962.841 3967.288 3971.357 3972.141 3974.912 3974.931 3971.208 3962.794 3970.556 3984.536 3978.566 3980.796 3989.886 3999.892 4013.264 4025.662 4038.44 4052.101 4063.695 4074.297 4087.616 4101.032 4115.986 4129.96 4143.572 4158.476 4173.244 4185.365 4197.541 4208.362 4219.88 4232.459 4240.906 4249.153 4265.083 4274.196 4286.134 4291.82 4298.204 4304.113 4311.971 4315.991 4320.034 4323.777 4325.903 4329.64 4333.34 4337.18 4339.103 4342.487 4353.106 4361.125 4364.594 4366.611 4370.22 4376.225 4384.459 4397.045 4408.679 4423.142 4437.811 4454.325 4468.995 4474.907 4480.358 4487.14 4492.655 4497.239 4499.332 4502.999 4505.507 4506.432 4507.882 4509.873 4512.949 4515.874 4518.806 4523.689 4527.197 4532.745 4538.177 4539.6 4532.214 4523.745 4518.127 4512.983 4506.591 4499.541 4497.384 4495.459 4493.993 4491.132 4488.669 4487.811 4487.038 4484.902 4484.529 4485 4488.652 4491.429 4496.848 4502.324 4507.399 4512.208 4515.285 4517.284 4526.899 4532.566 4536.846 4538.56 4538.114 4540.296 4545.006 4549.821 4551.404 4553.803 4556.625 4560.487 4564.155 4565.189 4564.062 4564.081 4564.748 4564.539 4565.044 4566.583 4567.515 4570.932 4584.235 4587.238 4586.306 4584.568 4582.411 4581.907 4582.751 4582.239 4582.504 4584.163 4585.053 4582.905 4580.191 4579.596 4578.938 4575.925 4573.193 4573.477 4577.045 4577.629 4577.074 4576.036 4577.178 4579.108 4582.275 4586.292 4592.441 4598.559 4605.882 4614.552 4621.098 4627.111 4633.721 4640.932 4645.245 4649.869 4654.394 4660.791 4667.82 4673.847 4677.873 4682.896 4688.918 4695.938 4701.957 4708.974 4716.989 4728.003 4738.017 4749.029 4759.031 4766.041 4770.048 4778.056 4790.062 4801.068 4810.073 4816.078 4818.082 4818.085 4820.088 4827.09 4836.092 4843.094 4849.095 4855.096 4859.097 4863.097 4868.097 4873.097 4880.097 4888.096 4896.095 4905.095 4914.093 4923.092 4932.091 4940.089 4946.088 4952.086 4956.084 4960.083 4964.081 4969.079 4974.077 4980.074 4984.072 4987.07 4989.068 4990.065 4991.063 4993.061 4996.058 5001.056 5005.053 5008.051 5012.048 5018.046 5025.043 5034.041 5045.039 5052.036 5057.034 5059.031 5058.028 5055.026 5054.023 5053.021 5055.019 5061.016 5067.014 5070.011 5072.008 5072.006 5071.003 5069.001 5068.999 5067.996 5066.994 5062.992 5059.989 5055.987 5052.984 5050.982 5048.98 5045.978 5041.975 5038.973 5035.971 5033.968 5032.966 5034.964 5036.962 5037.959 5039.958 5039.955 5040.953 5041.951 5043.949 5046.947 5051.945 5057.943
3843.316 3842.751 3845.099 3846.55 3849.044 3849.665 3856.232 3870.027 3870.765 3876.795 3885.202 3895.505 3886.855 3901.502 3905.24 3906.253 3909.684 3909.921 3915.018 3918.499 3917.139 3921.422 3924.459 3937.106 3951.978 3968.127 3976.949 3982.251 3986.251 3987.277 3986.4 3989.934 3993.365 3989.001 3992.598 3997.278 3993.142 3993.055 3992.798 4000.545 4011.359 4023.668 4036.986 4046.601 4057.13 4070.055 4082.351 4095.313 4109.977 4122.362 4134.871 4148.626 4162.32 4172.926 4184.574 4196.16 4207.991 4219.135 4225.988 4240.367 4248.912 4258.904 4266.936 4274.902 4282.675 4289.425 4296.071 4301.537 4305.811 4310.248 4310.623 4314.109 4322.157 4321.353 4326.145 4330.351 4337.769 4345.995 4352.749 4355.169 4361.089 4369.328 4377.317 4390.056 4404.934 4420.277 4433.324 4450.279 4465.979 4473.189 4479.376 4483.508 4486.453 4489.97 4496.234 4495.966 4496.404 4497.283 4499.522 4502.344 4507.007 4512.419 4515.508 4518.87 4523.413 4529.648 4534.171 4531.833 4527.492 4519.19 4512.122 4507.56 4501.489 4497.475 4494.012 4492.885 4491.874 4488.972 4486.051 4484.882 4483.482 4482.3 4481.871 4482.108 4482.844 4483.819 4486.405 4491.526 4496.556 4502.303 4506.341 4508.679 4514.643 4516.962 4519.867 4527.101 4525.315 4528.442 4531.323 4535.91 4540.106 4542.597 4548.955 4553.963 4555.828 4557.766 4558.331 4557.292 4558.643 4559.405 4560.61 4561.777 4564.149 4566.776 4569.216 4575.499 4576.408 4575.287 4573.901 4572.485 4571.737 4572.147 4572.148 4571.625 4571.112 4570.808 4570.68 4571.032 4570.776 4569.542 4568.415 4568.103 4569.099 4571.042 4570.441 4570.165 4571.674 4574.631 4577.504 4582.937 4588.693 4594.787 4601.028 4608.613 4616.068 4622.505 4629.089 4635.648 4639.373 4643.083 4648.269 4653.832 4659.861 4665.888 4670.912 4675.935 4679.956 4684.976 4690.993 4697.009 4708.024 4721.03 4734.041 4745.051 4755.061 4761.069 4764.076 4771.083 4781.088 4791.093 4800.098 4808.102 4812.105 4814.107 4817.11 4825.112 4833.113 4840.114 4846.115 4852.115 4856.115 4860.115 4864.115 4870.114 4875.113 4880.112 4886.111 4893.11 4900.108 4907.107 4915.105 4922.104 4928.102 4933.099 4937.097 4941.095 4946.093 4950.09 4955.088 4962.086 4970.083 4975.081 4979.078 4982.076 4982.073 4983.07 4985.068 4987.065 4989.062 4990.06 4993.057 4998.055 5005.052 5014.049 5024.046 5033.044 5040.041 5044.039 5046.036 5046.033 5045.031 5044.028 5045.025 5049.022 5054.02 5056.018 5057.015 5056.012 5054.01 5052.007 5052.004 5051.002 5048 5043.997 5038.995 5032.992 5027.99 5024.987 5023.985 5020.982 5016.98 5013.978 5010.976 5008.973 5008.971 5010.968 5013.966 5017.964 5021.962 5022.959 5023.958 5024.955 5026.953 5029.951 5037.949 5046.947
3855.924 3855.283 3856.487 3857.969 3862.127 3865.193 3871.424 3883.563 3884.19 3886.617 3895.237 3902.068 3899.908 3908.735 3918.452 3918.651 3921.048 3920.976 3925.773 3929.176 3929.84 3934.483 3940.058 3956.274 3976.193 3984.018 3987.994 3989.633 3993.508 3996.479 3996.062 3996.802 4001.561 4000.414 4001.831 4004.514 3998.992 4000.344 3998.443 4003.667 4013.925 4022.434 4032.71 4043.015 4054.923 4066.004 4078.519 4089.736 4100.373 4112.16 4126.323 4137.541 4148.595 4159.458 4171.241 4182.857 4193.898 4205.454 4215.921 4226.095 4235.307 4241.946 4251.263 4258.54 4267.405 4274.181 4280.363 4285.215 4290.133 4289.428 4296.263 4301.324 4302.554 4309.746 4311.91 4315.766 4324.941 4331.168 4339.724 4342.21 4350.908 4361.912 4372.842 4384.217 4398.728 4414.543 4430.14 4444.856 4457.785 4468.915 4473.149 4475.578 4485.179 4486.12 4486.437 4486.257 4488.08 4490.839 4492.675 4496.045 4500.42 4504.835 4509.152 4512.642 4519.187 4524.322 4528.492 4527.504 4522.292 4514.834 4509.799 4503.603 4497.92 4494.402 4491.428 4489.526 4488.307 4486.649 4483.075 4481.29 4480.118 4479.226 4478.841 4478.949 4479.406 4480.188 4481.387 4483.061 4487.26 4491.464 4496.417 4499.328 4504.977 4506.884 4507.397 4510.802 4514.772 4516.168 4520.818 4524.653 4527.791 4531.188 4535.425 4541.375 4545.998 4549.685 4551.497 4551.112 4553.066 4555.895 4557.25 4556.165 4556.118 4560.975 4561.494 4564.225 4564.865 4564.589 4563.793 4563.111 4562.833 4562.704 4561.998 4560.461 4559.967 4561.689 4563.496 4564.369 4564.001 4563.007 4563.085 4562.59 4562.419 4564.93 4564.812 4565.771 4567.831 4570.211 4573.47 4578.939 4583.959 4590.453 4597.28 4603.347 4610.176 4618.089 4625.076 4630.245 4632.666 4637.155 4641.245 4646.875 4652.903 4658.929 4664.953 4669.976 4672.996 4676.014 4681.023 4688.038 4700.05 4716.062 4731.073 4742.082 4752.09 4757.098 4760.104 4766.11 4773.115 4781.119 4791.123 4801.126 4808.128 4812.13 4817.132 4823.133 4830.134 4836.135 4843.135 4848.135 4852.134 4855.134 4859.133 4864.131 4867.13 4871.129 4875.127 4880.125 4885.124 4891.122 4898.12 4903.117 4907.115 4911.113 4916.11 4920.107 4925.105 4929.103 4935.1 4943.097 4953.094 4960.092 4967.089 4971.086 4973.083 4973.081 4974.078 4974.075 4974.072 4974.069 4976.066 4980.063 4985.061 4993.058 5002.055 5011.052 5020.049 5028.046 5033.043 5035.041 5037.038 5036.035 5036.032 5038.029 5040.026 5040.024 5040.021 5039.019 5036.016 5033.013 5033.01 5032.008 5029.005 5023.002 5017 5009.998 5003.995 5000.992 4999.99 4996.987 4993.985 4989.982 4986.98 4984.978 4984.975 4986.973 4990.971 4996.968 5001.966 5004.964 5006.961 5008.959 5011.957 5016.955 5026.953 5037.95
3868.132 3867.631 3867.076 3868.758 3871.458 3877.708 3886.506 3897.289 3896.468 3899.633 3907.857 3912.795 3912.286 3914.338 3928.892 3931.095 3933.418 3931.935 3936.617 3942.828 3943.382 3949.5 3955.922 3967.482 3981.095 3986.166 3989.384 3993.567 3995.359 3998.664 4000.674 4000.639 4002.929 4004.797 4005.589 4007.75 4008.308 4007.61 4002.681 4004.276 4013.371 4022.894 4032.768 4041.844 4052.057 4061.545 4073.306 4083.645 4094.748 4104.481 4116.165 4125.196 4137.54 4148.685 4160.989 4171.054 4186.65 4194.451 4204.223 4212.051 4219.902 4228.106 4236.432 4244.165 4253.322 4259.63 4266.211 4270.104 4274.461 4279.256 4285.86 4290.154 4295.208 4297.874 4303.027 4311.282 4314.327 4318.54 4327.883 4329.789 4344.48 4357.522 4372.459 4386.1 4399.364 4412.605 4427.048 4437.628 4448.644 4453.349 4464.864 4475.678 4475.226 4478.692 4477.906 4478.857 4482.944 4486.533 4488.054 4492.227 4496.022 4499.98 4504.689 4509.684 4514.349 4518.723 4522.123 4522.163 4520.175 4514.645 4509.208 4503.984 4498.015 4492.41 4489.46 4487.025 4486.702 4484.162 4480.084 4477.613 4476.416 4475.918 4475.65 4475.675 4475.828 4476.399 4477.436 4478.997 4481.17 4483.796 4487.555 4491.04 4496.821 4500.079 4499.128 4502.735 4506.726 4508.167 4513.932 4515.998 4517.97 4522.175 4524.971 4529.945 4533.107 4537.423 4540.33 4544.236 4550.254 4550.878 4550.482 4549.707 4550.111 4551.576 4552.214 4554.242 4554.852 4554.079 4553.67 4553.393 4552.521 4552.213 4551.99 4551.001 4550.759 4553.725 4556.744 4557.245 4556.582 4555.805 4555.383 4555.269 4556.421 4558.516 4559.517 4561.98 4564.027 4566.965 4571.285 4575.65 4580.906 4586.616 4594.775 4599.745 4606.143 4613.91 4620.651 4624.491 4626.674 4630.618 4635.86 4640.92 4646.947 4652.973 4658.996 4664.01 4667.028 4670.044 4675.059 4682.072 4694.084 4712.095 4727.105 4739.113 4749.121 4755.127 4758.133 4762.138 4767.142 4774.146 4785.148 4797.151 4806.153 4813.154 4819.155 4824.155 4827.156 4832.155 4837.155 4841.154 4845.153 4847.152 4850.15 4852.149 4855.147 4857.145 4861.143 4866.141 4872.139 4877.136 4882.134 4886.131 4888.128 4890.126 4894.123 4899.12 4904.117 4909.114 4916.111 4926.108 4936.105 4945.103 4952.1 4958.096 4960.093 4961.09 4962.087 4963.084 4963.081 4962.078 4962.075 4963.072 4966.069 4972.066 4979.062 4988.06 5000.057 5011.054 5017.051 5021.048 5024.045 5024.042 5024.039 5024.036 5024.033 5022.03 5019.027 5016.024 5012.022 5010.019 5010.016 5011.014 5008.011 5002.008 4995.005 4989.003 4983 4979.998 4978.995 4976.992 4972.99 4968.987 4965.985 4963.982 4962.98 4964.978 4967.975 4972.973 4978.97 4984.968 4990.965 4996.963 5002.961 5009.958 5019.957 5030.954
3879.45 3879.144 3877.669 3877.029 3884.574 3889.177 3900.055 3911.153 3909.491 3912.88 3918.438 3923.999 3925.703 3923.856 3939.814 3945.994 3946.911 3947.474 3949.857 3953.154 3958.433 3967.036 3969.421 3980.016 3984.842 3988.668 3991.651 3996.235 3997.955 4000.432 4003.325 4005.98 4006.665 4007.907 4009.555 4011.092 4013.583 4015.186 4012.751 4010.015 4011.748 4021.703 4029.422 4037.46 4047.771 4057.171 4068.154 4077.269 4084.793 4095.757 4107.491 4115.69 4127.245 4138.068 4148.972 4160.668 4172.621 4180.479 4189.868 4197.509 4205.426 4213.698 4221.396 4229.462 4238.391 4245.743 4250.49 4256.671 4260.852 4267.06 4272.655 4278.899 4285.031 4292.428 4290.771 4298.579 4302.416 4309.033 4315.621 4332.791 4346.409 4359.329 4371.457 4385.603 4395.026 4406.847 4420.843 4425.723 4429.864 4447.176 4465.906 4459.073 4468.665 4469.554 4471.158 4475.684 4479.07 4481.886 4484.758 4489.028 4493.767 4496.562 4501.883 4504.824 4509.046 4513.021 4517.645 4519.626 4519.103 4515.861 4509.17 4502.977 4497.529 4490.992 4487.457 4484.989 4483.555 4480.292 4476.24 4474.109 4472.951 4472.366 4472.689 4472.459 4471.864 4472.601 4473.121 4473.698 4475.164 4477.538 4479.247 4480.851 4487.5 4489.729 4488.621 4492.303 4494.944 4500.822 4505.484 4506.998 4510.874 4514.588 4514.746 4518.786 4522.833 4527.043 4530.371 4537.165 4539.706 4540.622 4540.555 4539.981 4540.84 4542.226 4542.125 4544.234 4545.948 4543.676 4542.59 4541.578 4540.516 4540.655 4541.58 4542.767 4542.907 4546.396 4550.629 4550.832 4550.045 4549.199 4548.71 4548.999 4551.212 4553.525 4555.087 4556.866 4560.613 4564.263 4568.862 4572.238 4578.239 4583.731 4591.506 4596.568 4602.041 4609.692 4615.172 4618.36 4621.73 4625.37 4629.952 4635.804 4640.986 4648.01 4654.031 4659.05 4662.067 4666.083 4671.096 4678.108 4690.12 4708.129 4724.138 4736.146 4746.152 4753.158 4756.162 4760.167 4763.169 4768.172 4780.174 4794.176 4805.177 4815.178 4822.178 4824.178 4825.177 4827.176 4831.175 4833.174 4836.172 4838.17 4838.168 4838.167 4839.164 4842.162 4845.159 4852.157 4858.154 4863.151 4866.148 4868.145 4868.142 4869.139 4873.136 4878.133 4884.129 4890.126 4898.123 4908.12 4919.117 4928.113 4935.11 4941.106 4945.104 4948.1 4950.097 4951.093 4952.09 4951.087 4950.083 4949.08 4949.077 4952.074 4957.071 4966.067 4980.064 4992.061 5000.058 5005.055 5009.052 5009.049 5009.045 5008.042 5007.04 5002.037 4996.034 4991.031 4987.028 4985.025 4986.022 4988.019 4986.016 4979.014 4973.011 4968.008 4963.005 4961.002 4961 4957.997 4953.995 4949.992 4946.989 4944.987 4943.984 4943.982 4944.979 4948.977 4954.975 4963.972 4974.97 4984.967 4995.965 5005.962 5014.96 5023.958
3892.006 3892.523 3891.53 3890.512 3895.796 3900.316 3912.354 3922.651 3921.204 3923.344 3931.771 3928.883 3932.531 3934.104 3950.308 3959.34 3960.496 3961.747 3960.876 3966.801 3971.38 3982.007 3986.508 3990.261 3991.516 3993.471 3995.193 3998.702 4001.947 4005.255 4007.244 4010.3 4012.393 4012.337 4012.89 4014.058 4016.075 4018.502 4020.106 4021.178 4017.617 4020.452 4029.291 4036.899 4045.924 4052.499 4061.727 4069.986 4081.864 4088.172 4098.451 4108.575 4119.125 4130.582 4140.256 4152.71 4161.438 4168.402 4178.103 4185.435 4191.187 4199.417 4209.251 4217.847 4228.16 4232.696 4237.67 4245.446 4250.912 4253.504 4268.046 4274.861 4275.706 4280.392 4277.501 4285.007 4290.764 4300.674 4310.878 4323.89 4340.696 4354.943 4365.41 4375.19 4388.912 4397.49 4402.232 4411.051 4429.34 4449.573 4445.873 4448.624 4451.642 4458.139 4465.326 4471.216 4474.553 4477.764 4481.409 4486.496 4489.213 4494.114 4498.708 4501.106 4504.438 4508.433 4513.791 4517.472 4517.739 4514.152 4505.622 4501.477 4496.169 4490.567 4485.679 4483.207 4480.636 4477.48 4473.923 4471.817 4470.145 4470.016 4470.395 4469.278 4468.768 4469.928 4469.075 4467.38 4470.312 4470.404 4472.892 4473.465 4475.715 4479.362 4482.383 4484.407 4487.367 4492.26 4497.305 4499.222 4503.845 4506.457 4507.001 4508.697 4513.478 4517.897 4523.267 4523.662 4528.949 4530.978 4530.971 4529.576 4529.135 4531.5 4532.931 4534.35 4536.635 4533.755 4531.024 4528.998 4528.095 4528.304 4529.769 4533.709 4538.387 4541.352 4543.057 4543.464 4543.406 4543.387 4544.262 4544.66 4547.18 4548.768 4549.951 4552.802 4556.574 4561.37 4566.073 4569.554 4576.277 4581.351 4587.457 4593.311 4598.475 4604.649 4609.141 4612.544 4616.226 4620.088 4624.635 4629.508 4635.031 4641.053 4648.073 4654.091 4659.107 4663.122 4668.134 4674.146 4686.156 4703.165 4718.172 4730.178 4740.184 4747.188 4752.192 4756.195 4758.198 4763.2 4775.201 4789.201 4801.202 4811.202 4818.201 4819.2 4819.199 4821.197 4823.196 4825.194 4827.191 4828.189 4827.187 4826.184 4826.181 4827.178 4830.175 4836.172 4842.169 4847.166 4851.163 4853.159 4853.156 4854.152 4858.149 4864.145 4870.142 4878.138 4886.135 4895.131 4903.127 4910.124 4916.121 4921.117 4926.113 4930.11 4934.106 4936.103 4938.099 4938.096 4938.092 4937.089 4936.085 4938.082 4941.079 4949.075 4962.072 4973.068 4982.065 4988.062 4991.059 4992.056 4991.052 4989.049 4986.046 4981.043 4974.04 4969.037 4964.034 4962.031 4962.028 4963.025 4961.022 4956.019 4951.016 4946.013 4943.01 4942.008 4942.005 4940.002 4936 4931.997 4928.994 4927.991 4926.989 4926.986 4928.983 4931.981 4936.979 4945.976 4957.974 4969.971 4982.969 4994.966 5004.964 5013.961
3904.98 3905.324 3904.873 3904.991 3908.199 3913.071 3922.63 3934.099 3934.968 3936.754 3946.63 3944.491 3943.767 3948.279 3960.031 3971.614 3977.127 3978.151 3979.667 3981.634 3984.972 3995.841 4004.926 4007.203 4006.01 4005.225 4003.511 4005.173 4008.679 4011.562 4016.526 4020.625 4022.075 4021.746 4018.325 4018.726 4019.822 4019.953 4023.411 4026.433 4025.57 4024.794 4029.945 4036.593 4044.146 4050.917 4058.306 4066.293 4074.861 4082.882 4091.207 4103.451 4116.187 4125.565 4134.001 4143.221 4147.95 4157.075 4163.776 4172.816 4178.026 4186.861 4198.818 4206.747 4213.342 4218.421 4225.114 4235.731 4240.234 4251.482 4255.188 4254.83 4257.568 4262.911 4270.473 4276.449 4287.727 4299.582 4315.933 4328.964 4338.085 4340.616 4355.917 4367.643 4378.549 4383.581 4393.499 4407.573 4426.323 4439.096 4428.951 4438.874 4440.972 4449.08 4454.088 4461.374 4469.506 4475.782 4479.265 4482.028 4486.325 4490.259 4494.497 4497.758 4501.221 4505.098 4510.366 4514.899 4516.142 4513.353 4505.106 4497.875 4494.543 4490.32 4484.719 4482.15 4479.259 4475.82 4472.873 4470.102 4468.817 4467.534 4466.129 4464.375 4463.6 4462.629 4460.81 4459.844 4459.804 4460.757 4463.1 4464.953 4468.405 4473.639 4476.938 4478.336 4479.833 4483.411 4487.744 4492.269 4495.787 4497.559 4498.309 4500.901 4504.515 4509.236 4514.199 4513.184 4518.838 4518.612 4520.98 4521.214 4520.822 4522.74 4523.978 4526.062 4527.498 4527.07 4524.414 4521.74 4519.162 4519.372 4523.522 4529.489 4533.277 4535.27 4535.367 4536.696 4536.961 4537.659 4540.206 4541.608 4543.402 4544.441 4546.161 4548.91 4553.191 4557.989 4562.969 4567.366 4574.123 4579.091 4584.481 4589.886 4594.617 4599.57 4603.085 4606.843 4610.317 4614.06 4618.274 4623.421 4629.078 4635.099 4642.118 4648.134 4655.149 4662.163 4667.174 4673.184 4683.193 4696.2 4710.207 4721.212 4732.216 4740.22 4746.223 4751.225 4755.226 4760.227 4770.228 4783.227 4793.227 4802.226 4809.224 4810.223 4811.221 4812.219 4813.216 4815.213 4816.211 4817.208 4815.205 4814.202 4812.198 4812.195 4813.191 4819.188 4825.184 4830.181 4836.177 4840.173 4842.169 4844.166 4850.162 4856.158 4863.154 4871.15 4878.146 4884.142 4889.139 4892.135 4894.131 4897.127 4903.123 4909.12 4914.116 4919.112 4922.108 4925.104 4926.101 4927.097 4927.094 4929.09 4931.086 4936.083 4946.08 4956.076 4963.072 4969.069 4972.066 4972.062 4970.059 4967.056 4963.052 4959.049 4953.046 4949.043 4944.04 4940.037 4938.034 4937.03 4934.027 4930.024 4927.021 4924.019 4922.016 4922.013 4924.01 4923.007 4920.004 4916.001 4913.999 4911.996 4911.993 4914.991 4917.988 4920.985 4925.983 4932.98 4941.978 4952.975 4965.973 4979.97 4991.968 5002.965
3918.049 3916.819 3915.995 3917.242 3920.81 3927.151 3936.326 3946.15 3950.112 3949.978 3961.127 3960.263 3957.687 3959.245 3969.506 3982.458 3991.961 3993.25 3997.797 3997.13 4001.536 4007.092 4023.508 4022.21 4021.203 4018.87 4018.011 4022.217 4020.542 4018.544 4022.972 4025.945 4027.798 4027.441 4027.707 4024.559 4024.773 4024.186 4023.812 4028.072 4029.589 4029.859 4032.168 4037.25 4044.024 4050.19 4057.952 4064.771 4071.529 4082.292 4091.319 4100.385 4107.755 4116.237 4122.733 4131.551 4137.058 4145.417 4152.646 4159.999 4167.95 4177.475 4190.368 4196.432 4202.465 4210.451 4216.292 4224.873 4231.252 4233.513 4237.264 4244.114 4249.971 4257.118 4264.282 4272.658 4290.485 4302.532 4311.521 4319.413 4324.234 4336.486 4348.795 4361.932 4364.936 4372.229 4387.167 4404.743 4418.784 4416.149 4421.927 4421.569 4431.372 4435.438 4443.777 4451.512 4463.774 4471.391 4474.452 4478.137 4483.497 4487.933 4491.573 4495.702 4499.741 4503.428 4508.268 4512.877 4514.776 4511.187 4500.104 4494.257 4490.545 4487.853 4484.889 4481.888 4478.868 4476.064 4473.848 4469.882 4466.367 4463.751 4461.582 4459.13 4458.386 4457.59 4456.841 4456.361 4456.154 4456.287 4456.836 4457.767 4460.845 4468.246 4471.747 4472.479 4473.375 4476.736 4480.71 4484.489 4488.245 4489.625 4491.133 4493.935 4497.494 4500.312 4506.46 4506.043 4507.262 4509.117 4511.655 4513.763 4513.771 4515.354 4516.314 4517.652 4518.457 4519.057 4516.969 4514.765 4514.845 4517.454 4521.744 4525.367 4526.558 4527.419 4528.721 4530.047 4531.432 4533.087 4536.524 4537.933 4538.903 4540.331 4543.572 4547.88 4550.963 4555.881 4561.21 4566.632 4572.313 4577.438 4583.14 4587.016 4591.09 4595.137 4597.606 4599.856 4603.688 4608.018 4612.838 4618.492 4623.903 4629.146 4636.164 4643.179 4651.192 4659.204 4665.214 4670.223 4679.231 4691.237 4702.242 4713.246 4723.25 4731.252 4739.254 4745.255 4749.255 4755.255 4764.254 4774.253 4784.252 4792.25 4798.248 4801.245 4802.243 4804.24 4805.237 4806.233 4807.23 4808.227 4806.223 4803.219 4801.215 4799.211 4799.208 4803.203 4808.199 4813.195 4818.191 4823.187 4827.183 4831.179 4836.174 4843.17 4850.166 4858.162 4864.158 4868.153 4869.149 4870.146 4870.141 4873.137 4879.133 4886.129 4892.125 4899.121 4904.117 4907.113 4910.109 4912.105 4913.102 4915.098 4917.094 4921.091 4928.087 4935.083 4941.08 4947.076 4950.073 4950.069 4948.065 4944.062 4940.059 4935.056 4931.052 4927.049 4922.045 4918.042 4915.039 4912.036 4909.033 4907.03 4905.027 4903.023 4901.021 4902.018 4904.015 4903.012 4901.009 4898.006 4896.003 4896 4896.998 4901.995 4905.992 4909.989 4913.987 4917.984 4924.981 4933.979 4945.977 4959.974 4973.972 4986.969
3931.668 3929.828 3928.018 3930.055 3935.09 3942.476 3953.415 3962.757 3966.321 3965.809 3975.839 3976.01 3973.348 3972.042 3980.194 3993.007 4002.019 4006.621 4009.573 4009.363 4008.931 4018.576 4037.008 4041.08 4039.503 4036.399 4044.024 4046.793 4048.407 4041.065 4029.602 4032.331 4032.984 4033.515 4033.413 4032.363 4031.68 4029.698 4028.759 4027.391 4030.837 4034.038 4035.812 4040.306 4044.65 4053.849 4057.568 4063.756 4071.079 4079.925 4086.519 4092.729 4100.945 4105.625 4111.152 4118.497 4127.605 4135.01 4142.201 4150.693 4159.173 4170.385 4179.054 4184.881 4192.205 4201.492 4206.855 4215.522 4217.2 4220.937 4227.605 4235.319 4243.712 4250.789 4263.223 4276.092 4284.186 4291.705 4296.728 4303.917 4315.527 4326.435 4340.468 4346.862 4354.985 4369.179 4389.188 4393.896 4393.877 4402.123 4403.594 4413.222 4420.514 4424.913 4434.496 4442.627 4453.659 4461.014 4470.778 4475.79 4481.805 4485.485 4490.079 4493.86 4498.333 4502.569 4507.337 4511.714 4512.986 4510.747 4501.771 4493.948 4490.929 4488.366 4484.979 4481.831 4478.675 4475.941 4475 4469.398 4463.448 4459.458 4458.226 4457.19 4456.187 4455.189 4454.274 4453.634 4453.257 4453.275 4453.926 4455.087 4456.86 4459.077 4462.772 4464.832 4465.337 4470.01 4474.078 4478.095 4481 4482.054 4483.732 4486.259 4488.31 4490.791 4494.326 4497.359 4498.325 4500.044 4502.318 4503.805 4505.191 4506.982 4508.759 4509.265 4510.691 4510.778 4509.579 4510.92 4512.043 4514.016 4517.2 4519.869 4520.955 4522.112 4523.861 4525.515 4527.461 4529.884 4532.847 4534.302 4535.016 4536.765 4541.339 4545.763 4548.881 4554.119 4561.296 4565.656 4570.727 4575.573 4580.002 4583.68 4587.112 4589.848 4591.355 4593.931 4597.87 4602.407 4607.471 4613.256 4618.156 4623.195 4630.211 4638.225 4647.237 4655.248 4662.256 4668.264 4676.27 4686.274 4696.278 4705.281 4714.283 4721.285 4728.285 4735.285 4741.284 4747.283 4755.281 4764.279 4772.277 4780.274 4786.271 4791.268 4794.265 4797.261 4799.257 4801.253 4803.25 4804.245 4800.241 4796.237 4792.232 4789.228 4788.224 4789.219 4791.214 4794.21 4796.205 4800.201 4805.196 4810.191 4815.187 4820.183 4826.178 4833.173 4838.169 4841.165 4843.16 4844.156 4845.151 4848.147 4854.143 4861.139 4869.134 4876.13 4881.126 4884.122 4886.118 4889.114 4891.11 4893.106 4896.102 4900.098 4905.094 4910.091 4915.087 4920.083 4924.08 4927.076 4927.072 4923.069 4917.065 4912.062 4907.058 4903.055 4899.051 4896.048 4893.045 4890.042 4888.038 4886.035 4884.032 4882.029 4880.025 4879.022 4878.02 4877.017 4876.014 4875.011 4875.008 4877.005 4881.002 4886.999 4891.997 4895.994 4899.991 4902.988 4905.985 4912.983 4921.98 4933.978 4949.975 4967.973
3945.409 3942.962 3940.979 3943.044 3949.692 3957.488 3969.814 3978.475 3982.038 3980.2 3988.364 3989.314 3988.183 3986.596 3994.115 4003.732 4011.349 4018.781 4022.582 4022.986 4022.101 4029.835 4046.715 4057.943 4058.352 4054.442 4059.9 4061.313 4066.255 4059.963 4046.104 4041.296 4038.671 4038.573 4038.823 4039.233 4036.871 4036.293 4032.875 4032.073 4033.074 4035.592 4038.15 4042.309 4046.044 4051.799 4056.875 4064.204 4070.199 4075.268 4079.212 4086.616 4092.211 4097.881 4106.278 4113.699 4120.064 4127.902 4135.497 4142.936 4156.766 4164.018 4170.739 4179.784 4189.358 4191.94 4199.529 4204.808 4210.168 4217.288 4224.854 4230.637 4240.798 4252.988 4263.104 4265.894 4271.394 4277.761 4290.241 4295.537 4307.876 4321.843 4327.434 4336.978 4351.683 4370.098 4376.584 4375.62 4383.582 4386.741 4396.08 4404.87 4411.096 4417.109 4426.991 4434.972 4443.444 4456.144 4465.147 4472.649 4479.052 4484.632 4489.402 4492.984 4497.772 4501.792 4506.319 4509.248 4511.166 4511.711 4507.715 4498.44 4491.608 4488.808 4485.866 4481.728 4478.034 4475.027 4470.661 4465.797 4459.84 4458.115 4456.908 4455.644 4454.322 4453.023 4451.834 4450.884 4450.311 4450.168 4450.875 4452.069 4453.663 4455.196 4456.569 4457.409 4457.984 4461.14 4467.051 4472.025 4474.757 4476.233 4478.038 4479.607 4480.801 4482.622 4484.984 4487.396 4490.133 4491.842 4494.344 4496.481 4496.795 4498.266 4501.079 4501.054 4503.002 4503.305 4502.669 4502.853 4507.869 4510.41 4512.285 4513.925 4515.514 4516.838 4518.823 4521.281 4524.571 4526.026 4528.55 4529.917 4532.083 4534.344 4539.428 4543.263 4547.786 4553.79 4562.115 4566.341 4570.332 4573.821 4577.194 4580.326 4582.901 4584.555 4586.101 4589.052 4593.55 4598.444 4603.191 4608.48 4613.394 4618.894 4625.26 4633.272 4642.283 4650.292 4657.299 4664.305 4672.31 4681.313 4690.315 4698.317 4705.317 4712.317 4718.317 4724.315 4731.314 4738.312 4745.309 4752.306 4759.303 4766.299 4773.295 4779.291 4785.287 4789.283 4792.278 4795.273 4798.269 4799.264 4794.259 4788.254 4783.25 4780.244 4778.239 4777.234 4776.229 4775.225 4775.219 4777.214 4782.209 4787.205 4791.2 4795.195 4800.19 4804.185 4808.181 4812.176 4815.171 4817.167 4819.162 4823.157 4829.153 4836.148 4844.144 4851.139 4856.135 4858.131 4861.126 4863.122 4865.118 4868.114 4873.11 4876.106 4880.102 4883.098 4887.094 4891.09 4896.086 4901.083 4903.079 4899.075 4893.071 4887.068 4881.064 4877.061 4875.057 4873.054 4871.05 4869.047 4868.043 4866.04 4864.037 4862.034 4859.031 4856.027 4853.024 4851.021 4850.018 4851.015 4854.012 4859.009 4864.006 4871.003 4877 4880.998 4884.995 4886.992 4887.989 4890.987 4896.984 4905.981 4922.979 4943.976
