ncols        190
nrows        32
xllcorner    1222.5
yllcorner    -4497.5
cellsize     25.000000000000
NODATA_value  -9999
2500 2500 2500 2500 2185.874267578125 2045.79736328125 1940.8265380859375 1853.62548828125 1777.729248046875 1709.8734130859375 1648.1343994140625 1591.2646484375 1538.3997802734375 1488.9114990234375 1442.32568359375 1398.2740478515625 1356.4638671875 1316.6572265625 1278.6585693359375 1242.3037109375 1207.4541015625 1173.990966796875 1141.8118896484375 1110.82763671875 1080.9598388671875 1052.1395263671875 1024.3052978515625 997.4022216796875 971.38134765625 946.19818115234375 921.812744140625 898.18853759765625 875.2923583984375 853.09381103515625 831.56512451171875 810.68060302734375 790.41668701171875 770.7515869140625 751.66510009765625 733.13836669921875 715.154052734375 697.6959228515625 680.748779296875 664.29852294921875 648.33184814453125 632.83636474609375 617.80047607421875 603.2132568359375 589.06439208984375 575.34417724609375 562.0435791015625 549.154052734375 536.6673583984375 524.57598876953125 512.8726806640625 501.55059814453125 490.60333251953125 480.024749755859375 469.809112548828125 459.95098876953125 450.445159912109375 441.28680419921875 432.471282958984375 423.994232177734375 415.85150146484375 408.0391845703125 400.55364990234375 393.391357421875 386.549041748046875 380.023590087890625 373.812103271484375 367.911834716796875 362.3201904296875 357.034759521484375 352.053314208984375 347.373687744140625 342.993988037109375 338.912322998046875 335.12701416015625 331.636566162109375 328.43951416015625 325.5345458984375 322.9205322265625 320.596405029296875 318.561248779296875 316.814239501953125 315.354705810546875 314.18206787109375 313.295867919921875 312.695709228515625 312.381439208984375 312.352874755859375 312.610015869140625 313.1529541015625 313.98193359375 315.097259521484375 316.499359130859375 318.188812255859375 320.166290283203125 322.43255615234375 324.988494873046875 327.835174560546875 330.973724365234375 334.4053955078125 338.131591796875 342.153839111328125 346.47381591796875 351.093292236328125 356.01422119140625 361.238677978515625 366.768890380859375 372.60723876953125 378.756256103515625 385.21868896484375 391.997406005859375 399.095428466796875 406.51605224609375 414.262725830078125 422.33905029296875 430.748931884765625 439.496429443359375 448.585845947265625 458.02178955078125 467.809051513671875 477.9527587890625 488.45831298828125 499.33135986328125 510.577972412109375 522.20452880859375 534.21771240234375 546.62469482421875 559.43304443359375 572.6507568359375 586.28631591796875 600.34869384765625 614.84747314453125 629.79278564453125 645.1954345703125 661.06689453125 677.41943359375 694.26605224609375 711.620849609375 729.4986572265625 747.91552734375 766.88861083984375 786.43646240234375 806.57891845703125 827.33746337890625 848.7353515625 870.7977294921875 893.55206298828125 917.02813720703125 941.258544921875 966.279052734375 992.12896728515625 1018.851806640625 1046.49560546875 1075.114013671875 1104.76708984375 1135.5220947265625 1167.4554443359375 1200.654052734375 1235.2174072265625 1271.2608642578125 1308.9185791015625 1348.3489990234375 1389.740966796875 1433.3228759765625 1479.375244140625 1528.2490234375 1580.3941650390625 1636.40283203125 1697.08349609375 1763.58984375 1837.674560546875 1922.2457275390625 2022.8470458984375 2153.156982421875 2391.948974609375 2500 2500 2500 2500 2500 2500 2500 2500 2500 2500 2500
2500 2500 2500 2500 2306.2216796875 2118.981689453125 1998.452392578125 1902.7772216796875 1821.3616943359375 1749.5501708984375 1684.8006591796875 1625.54296875 1570.72607421875 1519.6046142578125 1471.62744140625 1426.3729248046875 1383.510009765625 1342.772705078125 1303.9439697265625 1266.843505859375 1231.319580078125 1197.2432861328125 1164.5037841796875 1133.005126953125 1102.6632080078125 1073.4044189453125 1045.1632080078125 1017.881591796875 991.50738525390625 965.99383544921875 941.29864501953125 917.38348388671875 894.21356201171875 871.757080078125 849.98486328125 828.8701171875 808.38836669921875 788.5167236328125 769.2342529296875 750.521484375 732.3603515625 714.73388671875 697.6265869140625 681.02362060546875 664.91143798828125 649.27716064453125 634.1087646484375 619.39501953125 605.12530517578125 591.2896728515625 577.8787841796875 564.88372802734375 552.29620361328125 540.1083984375 528.31292724609375 516.90264892578125 505.871124267578125 495.21197509765625 484.919342041015625 474.987640380859375 465.411590576171875 456.1861572265625 447.306640625 438.768585205078125 430.567718505859375 422.7000732421875 415.161865234375 407.9495849609375 401.059783935546875 394.4893798828125 388.235321044921875 382.29486083984375 376.66534423828125 371.344329833984375 366.3294677734375 361.61859130859375 357.20977783203125 353.10107421875 349.290802001953125 345.77740478515625 342.55938720703125 339.63543701171875 337.00439453125 334.6651611328125 332.616790771484375 330.85845947265625 329.389495849609375 328.209259033203125 327.31732177734375 326.71331787109375 326.397003173828125 326.368255615234375 326.627044677734375 327.173492431640625 328.0078125 329.13037109375 330.541534423828125 332.241943359375 334.23223876953125 336.51324462890625 339.085845947265625 341.95111083984375 345.110198974609375 348.564422607421875 352.315185546875 356.36407470703125 360.712738037109375 365.363037109375 370.316925048828125 375.5765380859375 381.1441650390625 387.022247314453125 393.213348388671875 399.720245361328125 406.545928955078125 413.693450927734375 421.16619873046875 428.9676513671875 437.1015625 445.571868896484375 454.382720947265625 463.538604736328125 473.044158935546875 482.904327392578125 493.12432861328125 503.709686279296875 514.666259765625 526.000244140625 537.7181396484375 549.826904296875 562.3338623046875 575.24676513671875 588.5738525390625 602.32379150390625 616.50592041015625 631.1300048828125 646.20660400390625 661.74676513671875 677.76239013671875 694.26605224609375 711.27142333984375 728.79278564453125 746.845703125 765.44671630859375 784.61376953125 804.36590576171875 824.723876953125 845.71014404296875 867.3487548828125 889.66619873046875 912.69097900390625 936.454345703125 960.9906005859375 986.33721923828125 1012.53570556640625 1039.6318359375 1067.6767578125 1096.72705078125 1126.8466796875 1158.107666015625 1190.591796875 1224.392333984375 1259.616943359375 1296.390869140625 1334.8604736328125 1375.2000732421875 1417.618408203125 1462.3704833984375 1509.772705078125 1560.22607421875 1614.251708984375 1672.549072265625 1736.0955810546875 1806.3321533203125 1885.549072265625 1977.817138671875 2091.89453125 2256.740966796875 2500 2500 2500 2500 2500 2500 2500 2500 2500 2500 2500 2500
2500 2500 2500 2500 2500 2212.25 2065.057373046875 1957.5057373046875 1868.9888916015625 1792.3277587890625 1724.0006103515625 1661.966552734375 1604.916259765625 1551.9493408203125 1502.4154052734375 1455.82568359375 1411.802001953125 1370.044189453125 1330.309814453125 1292.3990478515625 1256.1451416015625 1221.406982421875 1188.064453125 1156.013427734375 1125.1636962890625 1095.43603515625 1066.7606201171875 1039.07568359375 1012.32562255859375 986.46112060546875 961.4373779296875 937.21405029296875 913.75445556640625 891.025146484375 868.9957275390625 847.6380615234375 826.92645263671875 806.8372802734375 787.34857177734375 768.44000244140625 750.09283447265625 732.28961181640625 715.01397705078125 698.2508544921875 681.9859619140625 666.20611572265625 650.89886474609375 636.05255126953125 621.65631103515625 607.6998291015625 594.17340087890625 581.0679931640625 568.37506103515625 556.08642578125 544.19451904296875 532.69219970703125 521.57257080078125 510.829315185546875 500.456298828125 490.44781494140625 480.798431396484375 471.503021240234375 462.5567626953125 453.955047607421875 445.69354248046875 437.7681884765625 430.175140380859375 422.910675048828125 415.971435546875 409.354156494140625 403.0557861328125 397.073455810546875 391.404510498046875 386.046356201171875 380.9967041015625 376.2532958984375 371.81414794921875 367.677337646484375 363.841064453125 360.30377197265625 357.063934326171875 354.1202392578125 351.471435546875 349.116455078125 347.054351806640625 345.28424072265625 343.805419921875 342.617340087890625 341.71942138671875 341.11138916015625 340.79296875 340.7640380859375 341.0245361328125 341.57464599609375 342.41455078125 343.544586181640625 344.9652099609375 346.677001953125 348.680633544921875 350.976959228515625 353.566925048828125 356.4515380859375 359.632049560546875 363.1097412109375 366.886077880859375 370.962646484375 375.341217041015625 380.023590087890625 385.011810302734375 390.308074951171875 395.9146728515625 401.834136962890625 408.069061279296875 414.622344970703125 421.4969482421875 428.696075439453125 436.223114013671875 444.08172607421875 452.275665283203125 460.808990478515625 469.68597412109375 478.91119384765625 488.4893798828125 498.425628662109375 508.72528076171875 519.39404296875 530.4378662109375 541.8631591796875 553.676513671875 565.88519287109375 578.4967041015625 591.5189208984375 604.96044921875 618.83013916015625 633.13763427734375 647.89306640625 663.10723876953125 678.7916259765625 694.95843505859375 711.620849609375 728.79278564453125 746.4892578125 764.72625732421875 783.52105712890625 802.89215087890625 822.85955810546875 843.44482421875 864.6712646484375 886.564208984375 909.15118408203125 932.46209716796875 956.5299072265625 981.39044189453125 1007.0833740234375 1033.6524658203125 1061.146240234375 1089.618896484375 1119.1307373046875 1149.75 1181.553955078125 1214.63037109375 1249.080322265625 1285.0206298828125 1322.5875244140625 1361.9425048828125 1403.277587890625 1446.826171875 1492.8753662109375 1541.7855224609375 1594.0198974609375 1650.191162109375 1711.1400146484375 1778.075439453125 1852.8524169921875 1938.595458984375 2041.4151611328125 2177.238525390625 2500 2500 2500 2500 2500 2500 2500 2500 2500 2500 2500 2500 2500
2500 2500 2500 2500 2500 2361.526123046875 2145.669677734375 2019.713623046875 1921.5970458984375 1838.807861328125 1766.140380859375 1700.82861328125 1641.1927490234375 1586.120849609375 1534.8316650390625 1486.750244140625 1441.439697265625 1398.5577392578125 1357.8310546875 1319.036376953125 1281.9893798828125 1246.5347900390625 1212.541259765625 1179.8958740234375 1148.5008544921875 1118.27099609375 1089.1314697265625 1061.0159912109375 1033.8656005859375 1007.62774658203125 982.25494384765625 957.70465087890625 933.93804931640625 910.92010498046875 888.61859130859375 867.0042724609375 846.0501708984375 825.73150634765625 806.025390625 786.91070556640625 768.3677978515625 750.37860107421875 732.9261474609375 715.99468994140625 699.56951904296875 683.63690185546875 668.1839599609375 653.19873046875 638.6697998046875 624.58673095703125 610.93939208984375 597.71844482421875 584.9151611328125 572.52105712890625 560.5284423828125 548.9298095703125 537.7181396484375 526.886962890625 516.42999267578125 506.34130859375 496.6153564453125 487.246917724609375 478.230987548828125 469.5628662109375 461.238128662109375 453.252593994140625 445.602264404296875 438.283477783203125 431.29266357421875 424.62652587890625 418.281951904296875 412.256011962890625 406.545928955078125 401.14910888671875 396.063201904296875 391.28594970703125 386.815185546875 382.6490478515625 378.785736083984375 375.223541259765625 371.96099853515625 368.9967041015625 366.3294677734375 363.958099365234375 361.88165283203125 360.09930419921875 358.610260009765625 357.4139404296875 356.509857177734375 355.897613525390625 355.576995849609375 355.5478515625 355.8101806640625 356.36407470703125 357.20977783203125 358.34759521484375 359.778045654296875 361.501708984375 363.519256591796875 365.83154296875 368.439544677734375 371.344329833984375 374.547119140625 378.04925537109375 381.85223388671875 385.957672119140625 390.367340087890625 395.0831298828125 400.107147216796875 405.441558837890625 411.08880615234375 417.051361083984375 423.332000732421875 429.933563232421875 436.85919189453125 444.11212158203125 451.695831298828125 459.614013671875 467.870574951171875 476.46966552734375 485.415679931640625 494.713226318359375 504.367279052734375 514.38299560546875 524.76580810546875 535.521728515625 546.65673828125 558.17742919921875 570.0906982421875 582.40386962890625 595.12469482421875 608.2613525390625 621.82269287109375 635.81787109375 650.25677490234375 665.14984130859375 680.50830078125 696.343994140625 712.66961669921875 729.4986572265625 746.845703125 764.72625732421875 783.156982421875 802.15576171875 821.74200439453125 841.93634033203125 862.761474609375 884.24163818359375 906.4034423828125 929.275634765625 952.8897705078125 977.2803955078125 1002.48541259765625 1028.546630859375 1055.510498046875 1083.428466796875 1112.358154296875 1142.3641357421875 1173.5196533203125 1205.90771484375 1239.623046875 1274.7755126953125 1311.4925537109375 1349.9239501953125 1390.247802734375 1432.6785888671875 1477.4786376953125 1524.974365234375 1575.581298828125 1629.8419189453125 1688.489013671875 1752.5543212890625 1823.5755615234375 1904.034423828125 1998.452392578125 2117.018310546875 2298.629638671875 2500 2500 2500 2500 2500 2500 2500 2500 2500 2500 2500 2500 2500
2500 2500 2500 2500 2500 2500 2253.677001953125 2092.814453125 1980.6976318359375 1889.8360595703125 1811.759521484375 1742.504150390625 1679.832275390625 1622.3326416015625 1569.046142578125 1519.2860107421875 1472.53955078125 1428.412353515625 1386.593017578125 1346.8304443359375 1308.9185791015625 1272.6859130859375 1237.9876708984375 1204.7008056640625 1172.718994140625 1141.949951171875 1112.3131103515625 1083.7373046875 1056.15966796875 1029.52392578125 1003.77978515625 978.88201904296875 954.7896728515625 931.46563720703125 908.87615966796875 886.99041748046875 865.780029296875 845.21905517578125 825.28363037109375 805.95159912109375 787.20257568359375 769.01763916015625 751.37908935546875 734.27069091796875 717.67706298828125 701.58404541015625 685.97821044921875 670.84716796875 656.17926025390625 641.96337890625 628.18939208984375 614.84747314453125 601.9285888671875 589.4241943359375 577.32611083984375 565.626708984375 554.31890869140625 543.39581298828125 532.85107421875 522.6785888671875 512.8726806640625 503.427947998046875 494.339263916015625 485.601837158203125 477.211090087890625 469.1627197265625 461.452728271484375 454.077239990234375 447.032623291015625 440.3155517578125 433.92279052734375 427.851348876953125 422.098419189453125 416.661346435546875 411.53765869140625 406.725067138671875 402.221405029296875 398.024749755859375 394.133209228515625 390.54510498046875 387.258880615234375 384.273162841796875 381.586669921875 379.198272705078125 377.10693359375 375.311798095703125 373.812103271484375 372.60723876953125 371.696685791015625 371.080078125 370.757171630859375 370.727813720703125 370.99200439453125 371.54986572265625 372.401580810546875 373.54754638671875 374.98822021484375 376.7242431640625 378.756256103515625 381.085174560546875 383.71197509765625 386.63775634765625 389.863739013671875 393.391357421875 397.222076416015625 401.357574462890625 405.7996826171875 410.550323486328125 415.611602783203125 420.985809326171875 426.675384521484375 432.682891845703125 439.01116943359375 445.663116455078125 452.641937255859375 459.95098876953125 467.593780517578125 475.57415771484375 483.896087646484375 492.563812255859375 501.581878662109375 510.95501708984375 520.688232421875 530.7869873046875 541.25677490234375 552.10369873046875 563.33404541015625 574.95452880859375 586.9722900390625 599.39483642578125 612.23016357421875 625.48675537109375 639.173583984375 653.30023193359375 667.87689208984375 682.9144287109375 698.42431640625 714.41888427734375 730.9112548828125 747.91552734375 765.44671630859375 783.52105712890625 802.15576171875 821.36962890625 841.18267822265625 861.61663818359375 882.69512939453125 904.44366455078125 926.8900146484375 950.06451416015625 974.00030517578125 998.73388671875 1024.3052978515625 1050.7587890625 1078.143798828125 1106.51513671875 1135.934326171875 1166.4708251953125 1198.203125 1231.2210693359375 1265.627685546875 1301.5426025390625 1339.10595703125 1378.483154296875 1419.8726806640625 1463.5155029296875 1509.7095947265625 1558.83056640625 1611.3634033203125 1667.954345703125 1729.4969482421875 1797.291015625 1873.3621826171875 1961.205078125 2067.94091796875 2213.992919921875 2500 2500 2500 2500 2500 2500 2500 2500 2500 2500 2500 2500 2500 2500
2500 2500 2500 2500 2500 2500 2500 2184.28662109375 2048.8349609375 1946.669189453125 1861.603515625 1787.48681640625 1721.186767578125 1660.8486328125 1605.265380859375 1553.598876953125 1505.23876953125 1459.7236328125 1416.69482421875 1375.866943359375 1337.0081787109375 1299.9271240234375 1264.463623046875 1230.482421875 1197.8671875 1166.5177001953125 1136.3468017578125 1107.27783203125 1079.2431640625 1052.1826171875 1026.042724609375 1000.77520751953125 976.336669921875 952.68780517578125 929.79302978515625 907.61968994140625 886.13818359375 865.32110595703125 845.14349365234375 825.58221435546875 806.61578369140625 788.224609375 770.39019775390625 753.0955810546875 736.32489013671875 720.063232421875 704.29681396484375 689.0126953125 674.19879150390625 659.84375 645.9368896484375 632.46820068359375 619.42828369140625 606.8082275390625 594.59979248046875 582.79498291015625 571.38653564453125 560.3673095703125 549.73077392578125 539.47076416015625 529.58123779296875 520.05682373046875 510.89215087890625 502.08233642578125 493.6226806640625 485.508758544921875 477.736419677734375 470.3017578125 463.2010498046875 456.430816650390625 449.98779296875 443.868927001953125 438.0712890625 432.592193603515625 427.42913818359375 422.5797119140625 418.041778564453125 413.81329345703125 409.892333984375 406.277252197265625 402.96636962890625 399.958343505859375 397.251800537109375 394.845611572265625 392.738739013671875 390.9302978515625 389.419525146484375 388.20574951171875 387.288482666015625 386.667327880859375 386.342041015625 386.312469482421875 386.57861328125 387.14056396484375 387.998565673828125 389.15301513671875 390.604339599609375 392.35321044921875 394.40032958984375 396.74658203125 399.3929443359375 402.340576171875 405.590789794921875 409.1448974609375 413.004547119140625 417.17138671875 421.64727783203125 426.434234619140625 431.534393310546875 436.9500732421875 442.68377685546875 448.738189697265625 455.11614990234375 461.8206787109375 468.855010986328125 476.22259521484375 483.927093505859375 491.97235107421875 500.362518310546875 509.101959228515625 518.19525146484375 527.6473388671875 537.46337890625 547.64886474609375 558.2095947265625 569.1517333984375 580.4818115234375 592.206787109375 604.3338623046875 616.8709716796875 629.82623291015625 643.20843505859375 657.02685546875 671.29144287109375 686.0126953125 701.2017822265625 716.8707275390625 733.03228759765625 749.70001220703125 766.88861083984375 784.61376953125 802.89215087890625 821.74200439453125 841.18267822265625 861.2352294921875 881.92242431640625 903.26898193359375 925.3016357421875 948.04962158203125 971.544921875 995.822509765625 1020.9208984375 1046.8826904296875 1073.7548828125 1101.5902099609375 1130.4471435546875 1160.391845703125 1191.4989013671875 1223.853515625 1257.5528564453125 1292.7095947265625 1329.4552001953125 1367.9443359375 1408.361328125 1450.928955078125 1495.9207763671875 1543.678955078125 1594.6409912109375 1649.382568359375 1708.687744140625 1773.673583984375 1846.0313720703125 1928.554443359375 2026.52880859375 2152.796875 2374.800048828125 2500 2500 2500 2500 2500 2500 2500 2500 2500 2500 2500 2500 2500 2500
2500 2500 2500 2500 2500 2500 2500 2320.278076171875 2130.98095703125 2011.328369140625 1916.7547607421875 1836.448974609375 1765.714599609375 1702.0025634765625 1643.74365234375 1589.89013671875 1539.7005615234375 1492.627197265625 1448.25146484375 1406.2449951171875 1366.3443603515625 1328.33447265625 1292.036865234375 1257.30126953125 1224.0003662109375 1192.0244140625 1161.278564453125 1131.6798095703125 1103.1553955078125 1075.6405029296875 1049.077880859375 1023.41607666015625 998.60894775390625 974.61480712890625 951.39581298828125 928.91754150390625 907.1488037109375 886.06072998046875 865.62701416015625 845.823486328125 826.627685546875 808.0189208984375 789.97808837890625 772.48736572265625 755.5301513671875 739.09112548828125 723.1558837890625 707.7109375 692.7437744140625 678.24261474609375 664.19635009765625 650.59466552734375 637.4278564453125 624.68670654296875 612.36260986328125 600.44744873046875 588.93353271484375 577.813720703125 567.08123779296875 556.72955322265625 546.752685546875 537.14495849609375 527.90087890625 519.015380859375 510.483734130859375 502.30133056640625 494.463897705078125 486.96746826171875 479.80816650390625 472.98248291015625 466.487030029296875 460.31866455078125 454.474395751953125 448.95147705078125 443.747344970703125 438.859527587890625 434.28582763671875 430.024169921875 426.07257080078125 422.429290771484375 419.092742919921875 416.061431884765625 413.333984375 410.9093017578125 408.786224365234375 406.96392822265625 405.441558837890625 404.218536376953125 403.29425048828125 402.668365478515625 402.340576171875 402.310791015625 402.5789794921875 403.14520263671875 404.009796142578125 405.17303466796875 406.635498046875 408.397735595703125 410.4605712890625 412.82489013671875 415.491668701171875 418.46209716796875 421.737518310546875 425.319305419921875 429.209075927734375 433.408599853515625 437.91973876953125 442.744537353515625 447.885223388671875 453.34417724609375 459.12396240234375 465.227294921875 471.657073974609375 478.416473388671875 485.508758544921875 492.937469482421875 500.70635986328125 508.8194580078125 517.2808837890625 526.09521484375 535.2672119140625 544.80181884765625 554.70440673828125 564.9805908203125 575.636474609375 586.67828369140625 598.11279296875 609.94708251953125 622.18878173828125 634.8458251953125 647.92681884765625 661.4407958984375 675.39727783203125 689.806640625 704.6796875 720.028076171875 735.8642578125 752.20135498046875 769.0537109375 786.43646240234375 804.36590576171875 822.85955810546875 841.93634033203125 861.61663818359375 881.92242431640625 902.8775634765625 924.50799560546875 946.8419189453125 969.91015625 993.74639892578125 1018.3876953125 1043.875 1070.2535400390625 1097.573486328125 1125.8912353515625 1155.26953125 1185.7796630859375 1217.50244140625 1250.5301513671875 1284.9691162109375 1320.943115234375 1358.597412109375 1398.1038818359375 1439.669921875 1483.5478515625 1530.051513671875 1579.578857421875 1632.647705078125 1689.9537353515625 1752.470703125 1821.6380615234375 1899.75 1990.90771484375 2104.020263671875 2269.40283203125 2500 2500 2500 2500 2500 2500 2500 2500 2500 2500 2500 2500 2500 2500 2500
2500 2500 2500 2500 2500 2500 2500 2500 2240.09619140625 2087.477294921875 1978.8953857421875 1890.3485107421875 1814.0335693359375 1746.2261962890625 1684.8006591796875 1628.4066162109375 1576.122314453125 1527.28466796875 1481.3980712890625 1438.07958984375 1397.0267333984375 1357.9952392578125 1320.7841796875 1285.226318359375 1251.1805419921875 1218.5262451171875 1187.1595458984375 1156.9903564453125 1127.939453125 1099.9375 1072.922607421875 1046.839599609375 1021.639404296875 997.2774658203125 973.71368408203125 950.91156005859375 928.8380126953125 907.46270751953125 886.7579345703125 866.6981201171875 847.25982666015625 828.42138671875 810.1627197265625 792.4652099609375 775.3116455078125 758.68585205078125 742.5728759765625 726.95880126953125 711.83056640625 697.17584228515625 682.98321533203125 669.241943359375 655.94195556640625 643.07379150390625 630.62841796875 618.59759521484375 606.97332763671875 595.7481689453125 584.9151611328125 574.46759033203125 564.3992919921875 554.70440673828125 545.37725830078125 536.4127197265625 527.8057861328125 519.55181884765625 511.64642333984375 504.085418701171875 496.864959716796875 489.981353759765625 483.431121826171875 477.211090087890625 471.31817626953125 465.74951171875 460.50250244140625 455.57464599609375 450.963653564453125 446.667327880859375 442.68377685546875 439.01116943359375 435.647796630859375 432.592193603515625 429.842987060546875 427.39898681640625 425.259063720703125 423.42230224609375 421.88787841796875 420.6551513671875 419.72357177734375 419.092742919921875 418.76239013671875 418.73236083984375 419.002655029296875 419.5733642578125 420.44476318359375 421.617218017578125 423.09124755859375 424.867462158203125 426.946685791015625 429.329833984375 432.01788330078125 435.012115478515625 438.313812255859375 441.9244384765625 445.845672607421875 450.07928466796875 454.627166748046875 459.491485595703125 464.674468994140625 470.1785888671875 476.00640869140625 482.160797119140625 488.644744873046875 495.461395263671875 502.61419677734375 510.106781005859375 517.9429931640625 526.12689208984375 534.66290283203125 543.5555419921875 552.8096923828125 562.4306640625 572.423828125 582.79498291015625 593.5504150390625 604.69659423828125 616.240478515625 628.18939208984375 640.5511474609375 653.3341064453125 666.5469970703125 680.19915771484375 694.3006591796875 708.86212158203125 723.89471435546875 739.41058349609375 755.42266845703125 771.94476318359375 788.99151611328125 806.57891845703125 824.723876953125 843.44482421875 862.761474609375 882.69512939453125 903.26898193359375 924.50799560546875 946.4395751953125 969.0933837890625 992.5020751953125 1016.7012939453125 1041.73046875 1067.633056640625 1094.4573974609375 1122.25732421875 1151.093017578125 1181.0325927734375 1212.1529541015625 1244.5418701171875 1278.3004150390625 1313.545166015625 1350.4130859375 1389.065673828125 1429.6962890625 1472.53955078125 1517.8848876953125 1566.096923828125 1617.6451416015625 1673.153564453125 1733.48193359375 1799.875 1874.260498046875 1959.9305419921875 2063.479736328125 2203.05712890625 2500 2500 2500 2500 2500 2500 2500 2500 2500 2500 2500 2500 2500 2500 2500 2500
2500 2500 2500 2500 2500 2500 2500 2500 2500 2183.29833984375 2050.91748046875 1950.63671875 1867.0111083984375 1794.0963134765625 1728.8482666015625 1669.4580078125 1614.745849609375 1563.8909912109375 1516.2952880859375 1471.5059814453125 1429.1708984375 1389.0093994140625 1350.793701171875 1314.3355712890625 1279.4775390625 1246.086181640625 1214.0469970703125 1183.2615966796875 1153.643798828125 1125.1181640625 1097.6180419921875 1071.0843505859375 1045.4639892578125 1020.70965576171875 996.7784423828125 973.63177490234375 951.234375 929.55419921875 908.56195068359375 888.23077392578125 868.53594970703125 849.45465087890625 830.9658203125 813.05010986328125 795.68927001953125 778.86663818359375 762.5665283203125 746.7744140625 731.47662353515625 716.66046142578125 702.31396484375 688.42608642578125 674.986328125 661.9847412109375 649.4122314453125 637.26007080078125 625.52008056640625 614.18450927734375 603.2462158203125 592.6982421875 582.53424072265625 572.748046875 563.33404541015625 554.2867431640625 545.60113525390625 537.27227783203125 529.29583740234375 521.6673583984375 514.38299560546875 507.4388427734375 500.8314208984375 494.557403564453125 488.6136474609375 482.997283935546875 477.70550537109375 472.73583984375 468.08587646484375 463.753448486328125 459.736541748046875 456.03326416015625 452.641937255859375 449.56103515625 446.789093017578125 444.324920654296875 442.167388916015625 440.3155517578125 438.768585205078125 437.5257568359375 436.586578369140625 435.950592041015625 435.617523193359375 435.587249755859375 435.8597412109375 436.43511962890625 437.31365966796875 438.495697021484375 439.981781005859375 441.772613525390625 443.868927001953125 446.271697998046875 448.981964111328125 452.0009765625 455.330108642578125 458.970855712890625 462.924896240234375 467.194061279296875 471.78033447265625 476.685882568359375 481.91302490234375 487.46429443359375 493.34234619140625 499.550048828125 506.09051513671875 512.967041015625 520.18310546875 527.742431640625 535.64898681640625 543.906982421875 552.5208740234375 561.49542236328125 570.835693359375 580.54693603515625 590.63494873046875 601.1055908203125 611.96533203125 623.2208251953125 634.87933349609375 646.948486328125 659.43621826171875 672.35125732421875 685.70263671875 699.50006103515625 713.75390625 728.4752197265625 743.67572021484375 759.367919921875 775.5653076171875 792.2822265625 809.5340576171875 827.33746337890625 845.71014404296875 864.6712646484375 884.24163818359375 904.44366455078125 925.3016357421875 946.8419189453125 969.0933837890625 992.0875244140625 1015.85882568359375 1040.4453125 1065.8887939453125 1092.23583984375 1119.5380859375 1147.853515625 1177.2471923828125 1207.7926025390625 1239.573486328125 1272.6859130859375 1307.2406005859375 1343.366943359375 1381.2171630859375 1420.97265625 1462.8524169921875 1507.1253662109375 1554.12744140625 1604.2879638671875 1658.171630859375 1716.546142578125 1780.503662109375 1851.6944580078125 1932.8360595703125 2029.0435791015625 2152.616943359375 2364.722412109375 2500 2500 2500 2500 2500 2500 2500 2500 2500 2500 2500 2500 2500 2500 2500 2500
2500 2500 2500 2500 2500 2500 2500 2500 2500 2329.193115234375 2138.682861328125 2019.713623046875 1925.935546875 1846.4136962890625 1776.4324951171875 1713.4410400390625 1655.873291015625 1602.6845703125 1553.13671875 1506.684814453125 1462.9127197265625 1421.494140625 1382.167236328125 1344.7186279296875 1308.9710693359375 1274.7755126953125 1242.005615234375 1210.552490234375 1180.322021484375 1151.2320556640625 1123.210205078125 1096.192626953125 1070.1224365234375 1044.948486328125 1020.6251220703125 997.11114501953125 974.36895751953125 952.36468505859375 931.0672607421875 910.44818115234375 890.4814453125 871.14306640625 852.41082763671875 834.264404296875 816.684814453125 799.6544189453125 783.156982421875 767.17718505859375 751.7008056640625 736.7147216796875 722.2064208984375 708.16436767578125 694.57763671875 681.43603515625 668.72991943359375 656.450439453125 644.5889892578125 633.13763427734375 622.08892822265625 611.43572998046875 601.17138671875 591.2896728515625 581.78466796875 572.6507568359375 563.88275146484375 555.47564697265625 547.4248046875 539.72576904296875 532.37451171875 525.36712646484375 518.699951171875 512.3695068359375 506.372650146484375 500.70635986328125 495.36785888671875 490.354522705078125 485.66387939453125 481.293731689453125 477.241973876953125 473.5067138671875 470.086212158203125 466.978851318359375 464.183197021484375 461.697998046875 459.522125244140625 457.654541015625 456.09442138671875 454.841094970703125 453.893951416015625 453.252593994140625 452.916717529296875 452.88616943359375 453.160980224609375 453.7412109375 454.627166748046875 455.819244384765625 457.31793212890625 459.12396240234375 461.238128662109375 463.661376953125 466.39483642578125 469.439727783203125 472.7974853515625 476.46966552734375 480.457977294921875 484.7642822265625 489.390625 494.339263916015625 499.612548828125 505.213043212890625 511.1435546875 517.406982421875 524.006591796875 530.9456787109375 538.22784423828125 545.85699462890625 553.83709716796875 562.172607421875 570.8680419921875 579.92840576171875 589.3587646484375 599.1646728515625 609.35198974609375 619.9268798828125 630.89593505859375 642.26617431640625 654.04498291015625 666.24017333984375 678.8602294921875 691.91400146484375 705.410888671875 719.361083984375 733.77520751953125 748.664794921875 764.04205322265625 779.9200439453125 796.31280517578125 813.2353515625 830.7037353515625 848.7353515625 867.3487548828125 886.564208984375 906.4034423828125 926.8900146484375 948.04962158203125 969.91015625 992.5020751953125 1015.85882568359375 1040.01708984375 1065.0174560546875 1090.904541015625 1117.728271484375 1145.54443359375 1174.415283203125 1204.411376953125 1235.61279296875 1268.1112060546875 1302.0120849609375 1337.438232421875 1374.533447265625 1413.4688720703125 1454.449951171875 1497.7275390625 1543.613525390625 1592.50341796875 1644.9122314453125 1701.53271484375 1763.335205078125 1831.7559814453125 1909.0897216796875 1999.4503173828125 2111.831298828125 2277.401611328125 2500 2500 2500 2500 2500 2500 2500 2500 2500 2500 2500 2500 2500 2500 2500 2500 2500
2500 2500 2500 2500 2500 2500 2500 2500 2500 2500 2258.80517578125 2102.130615234375 1992.875732421875 1904.34912109375 1828.304443359375 1760.87890625 1699.890625 1643.962646484375 1592.1591796875 1543.8096923828125 1498.413818359375 1455.5863037109375 1415.0230712890625 1376.478759765625 1339.752197265625 1304.67578125 1271.1082763671875 1238.9290771484375 1208.034423828125 1178.3343505859375 1149.75 1122.2119140625 1095.6585693359375 1070.034912109375 1045.2921142578125 1021.38580322265625 998.2760009765625 975.926513671875 954.30438232421875 933.37945556640625 913.1241455078125 893.51312255859375 874.52313232421875 856.13262939453125 838.3216552734375 821.07177734375 804.36590576171875 788.1881103515625 772.52349853515625 757.35833740234375 742.67962646484375 728.4752197265625 714.73388671875 701.44500732421875 688.5986328125 676.185302734375 664.19635009765625 652.62347412109375 641.45892333984375 630.6953125 620.3258056640625 610.34393310546875 600.74359130859375 591.5189208984375 582.66461181640625 574.17547607421875 566.04681396484375 558.27398681640625 550.85272216796875 543.7791748046875 537.0494384765625 530.6600341796875 524.60760498046875 518.88922119140625 513.5018310546875 508.44281005859375 503.709686279296875 499.30010986328125 495.21197509765625 491.44329833984375 487.9923095703125 484.857330322265625 482.03692626953125 479.529754638671875 477.334686279296875 475.450653076171875 473.876861572265625 472.612518310546875 471.657073974609375 471.010101318359375 470.671295166015625 470.6405029296875 470.917694091796875 471.503021240234375 472.396728515625 473.5992431640625 475.111114501953125 476.933013916015625 479.0657958984375 481.510467529296875 484.26812744140625 487.340057373046875 490.727752685546875 494.4327392578125 498.45684814453125 502.801971435546875 507.47021484375 512.4638671875 517.78533935546875 523.43731689453125 529.42266845703125 535.74444580078125 542.40582275390625 549.41033935546875 556.76171875 564.46392822265625 572.52105712890625 580.937744140625 589.7186279296875 598.8687744140625 608.3935546875 618.29864501953125 628.590087890625 639.27435302734375 650.358154296875 661.8487548828125 673.75384521484375 686.08160400390625 698.84063720703125 712.040283203125 725.69024658203125 739.8011474609375 754.384033203125 769.450927734375 785.01458740234375 801.08856201171875 817.6876220703125 834.82733154296875 852.524658203125 870.7977294921875 889.66619873046875 909.15118408203125 929.275634765625 950.06451416015625 971.544921875 993.74639892578125 1016.7012939453125 1040.4453125 1065.0174560546875 1090.4610595703125 1116.8243408203125 1144.1607666015625 1172.5306396484375 1202.0015869140625 1232.650390625 1264.5648193359375 1297.845703125 1332.6097412109375 1368.9937744140625 1407.15966796875 1447.3011474609375 1489.653564453125 1534.5079345703125 1582.23095703125 1633.2965087890625 1688.3350830078125 1748.21875 1814.2158203125 1888.301513671875 1973.8822021484375 2077.89208984375 2220.1787109375 2500 2500 2500 2500 2500 2500 2500 2500 2500 2500 2500 2500 2500 2500 2500 2500 2500 2500
2500 2500 2500 2500 2500 2500 2500 2500 2500 2500 2500 2209.01025390625 2071.57275390625 1969.7406005859375 1885.549072265625 1812.486328125 1747.3048095703125 1688.1041259765625 1633.6571044921875 1583.11669921875 1535.8682861328125 1491.4490966796875 1449.5001220703125 1409.736328125 1371.9263916015625 1335.880126953125 1301.4383544921875 1268.4664306640625 1236.84912109375 1206.4873046875 1177.29443359375 1149.1947021484375 1122.1212158203125 1096.0146484375 1070.8218994140625 1046.49560546875 1022.992919921875 1000.2750244140625 978.306884765625 957.056396484375 936.49432373046875 916.5938720703125 897.330322265625 878.68109130859375 860.6251220703125 843.14306640625 826.21685791015625 809.82989501953125 793.96661376953125 778.61248779296875 763.7540283203125 749.378662109375 735.47454833984375 722.0306396484375 709.03656005859375 696.48260498046875 684.359619140625 672.6590576171875 661.372802734375 650.4932861328125 640.013427734375 629.92645263671875 620.22607421875 610.90631103515625 601.9615478515625 593.38653564453125 585.17626953125 577.32611083984375 569.83160400390625 562.688720703125 555.89349365234375 549.4423828125 543.3319091796875 537.55889892578125 532.12042236328125 527.013671875 522.236083984375 517.78533935546875 513.65911865234375 509.85552978515625 506.372650146484375 503.208831787109375 500.362518310546875 497.832427978515625 495.6173095703125 493.71612548828125 492.12799072265625 490.8521728515625 489.8880615234375 489.2352294921875 488.893341064453125 488.862274169921875 489.1419677734375 489.73260498046875 490.634429931640625 491.847869873046875 493.37347412109375 495.21197509765625 497.364227294921875 499.831268310546875 502.61419677734375 505.71441650390625 509.13336181640625 512.8726806640625 516.9342041015625 521.31988525390625 526.03192138671875 531.0726318359375 536.444580078125 542.150390625 548.193115234375 554.57586669921875 561.302001953125 568.37506103515625 575.79888916015625 583.57757568359375 591.7154541015625 600.21710205078125 609.0875244140625 618.33184814453125 627.9556884765625 637.96484375 648.3656005859375 659.16461181640625 670.368896484375 681.9859619140625 694.0238037109375 706.4908447265625 719.39617919921875 732.74932861328125 746.560546875 760.8406982421875 775.6015625 790.85546875 806.61578369140625 822.8968505859375 839.7138671875 857.0833740234375 875.0230712890625 893.55206298828125 912.69097900390625 932.46209716796875 952.8897705078125 974.00030517578125 995.822509765625 1018.3876953125 1041.73046875 1065.8887939453125 1090.904541015625 1116.8243408203125 1143.6998291015625 1171.58935546875 1200.557861328125 1230.6793212890625 1262.0379638671875 1294.7303466796875 1328.8680419921875 1364.58154296875 1402.0245361328125 1441.380615234375 1482.8717041015625 1526.7708740234375 1573.4202880859375 1623.2589111328125 1676.86572265625 1735.03271484375 1798.8936767578125 1870.1785888671875 1951.775634765625 2049.250732421875 2176.657958984375 2431.6259765625 2500 2500 2500 2500 2500 2500 2500 2500 2500 2500 2500 2500 2500 2500 2500 2500 2500 2500
2500 2500 2500 2500 2500 2500 2500 2500 2500 2500 2500 2401.005126953125 2170.341064453125 2045.79736328125 1949.8409423828125 1869.2861328125 1798.8045654296875 1735.6048583984375 1678.0054931640625 1624.9000244140625 1575.513671875 1529.278564453125 1485.7637939453125 1444.6328125 1405.6165771484375 1368.49658203125 1333.0916748046875 1299.250244140625 1266.843505859375 1235.7611083984375 1205.90771484375 1177.199951171875 1149.56494140625 1122.9378662109375 1097.2615966796875 1072.484619140625 1048.56103515625 1025.44921875 1003.111572265625 981.513916015625 960.6251220703125 940.416748046875 920.862548828125 901.93865966796875 883.62286376953125 865.89471435546875 848.7353515625 832.1270751953125 816.05377197265625 800.50006103515625 785.45196533203125 770.89617919921875 756.8204345703125 743.213134765625 730.06353759765625 717.36151123046875 705.09747314453125 693.26263427734375 681.84844970703125 670.84716796875 660.25140380859375 650.0540771484375 640.2486572265625 630.82904052734375 621.7894287109375 613.124267578125 604.8284912109375 596.89727783203125 589.3260498046875 582.11053466796875 575.24676513671875 568.73095703125 562.5596923828125 556.72955322265625 551.237548828125 546.08087158203125 541.25677490234375 536.76287841796875 532.59686279296875 528.7567138671875 525.24053955078125 522.0465087890625 519.17315673828125 516.6190185546875 514.38299560546875 512.4638671875 510.860748291015625 509.572906494140625 508.5997314453125 507.940765380859375 507.595672607421875 507.564300537109375 507.846649169921875 508.44281005859375 509.353118896484375 510.577972412109375 512.11798095703125 513.97381591796875 516.14642333984375 518.6368408203125 521.44622802734375 524.57598876953125 528.02764892578125 531.8028564453125 535.90350341796875 540.3316650390625 545.08953857421875 550.17950439453125 555.60418701171875 561.366455078125 567.46929931640625 573.9158935546875 580.70977783203125 587.8546142578125 595.3543701171875 603.2132568359375 611.43572998046875 620.026611328125 628.99090576171875 638.3341064453125 648.06182861328125 658.18023681640625 668.69580078125 679.61541748046875 690.94635009765625 702.69647216796875 714.87396240234375 727.4876708984375 740.54693603515625 754.06182861328125 768.04302978515625 782.5018310546875 797.450439453125 812.90191650390625 828.8701171875 845.3701171875 862.41796875 880.0308837890625 898.2275390625 917.02813720703125 936.454345703125 956.5299072265625 977.2803955078125 998.73388671875 1020.9208984375 1043.875 1067.633056640625 1092.23583984375 1117.728271484375 1144.1607666015625 1171.58935546875 1200.076904296875 1229.6949462890625 1260.5242919921875 1292.6578369140625 1326.2027587890625 1361.2835693359375 1398.0472412109375 1436.66796875 1477.3563232421875 1520.3699951171875 1566.030029296875 1614.745849609375 1667.053466796875 1723.6785888671875 1785.6470947265625 1854.496337890625 1932.725830078125 2024.9473876953125 2141.81005859375 2327.735595703125 2500 2500 2500 2500 2500 2500 2500 2500 2500 2500 2500 2500 2500 2500 2500 2500 2500 2500 2500
2500 2500 2500 2500 2500 2500 2500 2500 2500 2500 2500 2500 2319.583740234375 2139.202392578125 2024.02734375 1932.8360595703125 1855.3682861328125 1787.1361083984375 1725.69384765625 1669.533203125 1617.6451416015625 1569.3148193359375 1524.0133056640625 1481.336669921875 1440.9674072265625 1402.65087890625 1366.1790771484375 1331.3790283203125 1298.105712890625 1266.2354736328125 1235.6622314453125 1206.2940673828125 1178.0506591796875 1150.861328125 1124.6636962890625 1099.40185546875 1075.0263671875 1051.4921875 1028.759033203125 1006.79034423828125 985.55291748046875 965.01629638671875 945.15277099609375 925.936767578125 907.344970703125 889.355712890625 871.94903564453125 855.10638427734375 838.8106689453125 823.0458984375 807.79730224609375 793.05096435546875 778.79400634765625 765.014404296875 751.7008056640625 738.84271240234375 726.43017578125 714.453857421875 702.9051513671875 691.7757568359375 681.0579833984375 670.74468994140625 660.8289794921875 651.30450439453125 642.16522216796875 633.405517578125 625.02001953125 617.00372314453125 609.35198974609375 602.060302734375 595.12469482421875 588.5411376953125 582.30609130859375 576.41607666015625 570.8680419921875 565.65899658203125 560.7862548828125 556.2471923828125 552.03955078125 548.1611328125 544.6099853515625 541.3843994140625 538.48272705078125 535.90350341796875 533.6455078125 531.70758056640625 530.08880615234375 528.7884521484375 527.8057861328125 527.140380859375 526.79193115234375 526.76025390625 527.04534912109375 527.6473388671875 528.5665283203125 529.80328369140625 531.35833740234375 533.23236083984375 535.42626953125 537.941162109375 540.7781982421875 543.93890380859375 547.4248046875 551.237548828125 555.37921142578125 559.851806640625 564.65765380859375 569.79925537109375 575.27923583984375 581.1005859375 587.266357421875 593.7799072265625 600.64483642578125 607.864990234375 615.4443359375 623.38739013671875 631.6986083984375 640.38311767578125 649.446044921875 658.89300537109375 668.72991943359375 678.96319580078125 689.5994873046875 700.64593505859375 712.11016845703125 724.00030517578125 736.32489013671875 749.09307861328125 762.31475830078125 776.00030517578125 790.16082763671875 804.80828857421875 819.95538330078125 835.61572265625 851.80401611328125 868.53594970703125 885.828369140625 903.6995849609375 922.169189453125 941.258544921875 960.9906005859375 981.39044189453125 1002.48541259765625 1024.3052978515625 1046.8826904296875 1070.2535400390625 1094.4573974609375 1119.5380859375 1145.54443359375 1172.5306396484375 1200.557861328125 1229.6949462890625 1260.0201416015625 1291.623046875 1324.6064453125 1359.09033203125 1395.2149658203125 1433.1470947265625 1473.087158203125 1515.2791748046875 1560.026611328125 1607.713623046875 1658.840087890625 1714.0770263671875 1774.3623046875 1841.0804443359375 1916.433349609375 2004.3438720703125 2113.282958984375 2271.58154296875 2500 2500 2500 2500 2500 2500 2500 2500 2500 2500 2500 2500 2500 2500 2500 2500 2500 2500 2500 2500
2500 2500 2500 2500 2500 2500 2500 2500 2500 2500 2500 2500 2500 2270.217529296875 2113.768310546875 2005.73291015625 1918.4718017578125 1843.646484375 1777.3831787109375 1717.5040283203125 1662.6380615234375 1611.8558349609375 1564.4920654296875 1520.051025390625 1478.1512451171875 1438.49169921875 1400.829833984375 1364.9669189453125 1330.7374267578125 1298.001708984375 1266.6407470703125 1236.5523681640625 1207.6474609375 1179.8485107421875 1153.0869140625 1127.3018798828125 1102.4395751953125 1078.4515380859375 1055.294189453125 1032.9281005859375 1011.31768798828125 990.4305419921875 970.2369384765625 950.7098388671875 931.82427978515625 913.55743408203125 895.88812255859375 878.7967529296875 862.2652587890625 846.27691650390625 830.8160400390625 815.8681640625 801.41973876953125 787.4580078125 773.9713134765625 760.94854736328125 748.37933349609375 736.25396728515625 724.56341552734375 713.29913330078125 702.45306396484375 692.0177001953125 681.9859619140625 672.35125732421875 663.10723876953125 654.24810791015625 645.76837158203125 637.66278076171875 629.92645263671875 622.554931640625 615.5438232421875 608.88922119140625 602.5872802734375 596.63458251953125 591.02777099609375 585.76385498046875 580.84002685546875 576.253662109375 572.0023193359375 568.0838623046875 564.4962158203125 561.23748779296875 558.30615234375 555.70062255859375 553.419677734375 551.46209716796875 549.826904296875 548.51336669921875 547.52081298828125 546.84869384765625 546.49676513671875 546.4647216796875 546.752685546875 547.36077880859375 548.2891845703125 549.53851318359375 551.10931396484375 553.0023193359375 555.218505859375 557.759033203125 560.6251220703125 563.81817626953125 567.33990478515625 571.19207763671875 575.37664794921875 579.89581298828125 584.751953125 589.9476318359375 595.485595703125 601.368896484375 607.6007080078125 614.18450927734375 621.1240234375 628.423095703125 636.08612060546875 644.117431640625 652.52197265625 661.3048095703125 670.47137451171875 680.0274658203125 689.97930908203125 700.3333740234375 711.0966796875 722.2767333984375 733.88134765625 745.9190673828125 758.39874267578125 771.33001708984375 784.72308349609375 798.58880615234375 812.93896484375 827.785888671875 843.14306640625 859.024658203125 875.44622802734375 892.4241943359375 909.9764404296875 928.12213134765625 946.88214111328125 966.279052734375 986.33721923828125 1007.0833740234375 1028.546630859375 1050.7587890625 1073.7548828125 1097.573486328125 1122.25732421875 1147.853515625 1174.415283203125 1202.0015869140625 1230.6793212890625 1260.5242919921875 1291.623046875 1324.0748291015625 1357.9952392578125 1393.51904296875 1430.806396484375 1470.048583984375 1511.4783935546875 1555.3836669921875 1602.1275634765625 1652.1793212890625 1706.1644287109375 1764.948974609375 1829.7947998046875 1902.672607421875 1986.994140625 2089.756103515625 2231.345947265625 2500 2500 2500 2500 2500 2500 2500 2500 2500 2500 2500 2500 2500 2500 2500 2500 2500 2500 2500 2500 2500
2500 2500 2500 2500 2500 2500 2500 2500 2500 2500 2500 2500 2500 2500 2234.387451171875 2092.968017578125 1990.53955078125 1906.556640625 1834.0045166015625 1769.4693603515625 1710.9815673828125 1657.2811279296875 1607.5035400390625 1561.0245361328125 1517.3759765625 1476.19580078125 1437.1971435546875 1400.147705078125 1364.8568115234375 1331.1651611328125 1298.93798828125 1268.0604248046875 1238.4334716796875 1209.970947265625 1182.5972900390625 1156.2459716796875 1130.85791015625 1106.380615234375 1082.7667236328125 1059.9739990234375 1037.9637451171875 1016.7012939453125 996.1549072265625 976.295654296875 957.09686279296875 938.53436279296875 920.5855712890625 903.22979736328125 886.447998046875 870.222412109375 854.53656005859375 839.3751220703125 824.723876953125 810.56964111328125 796.89990234375 783.703125 770.968505859375 758.68585205078125 746.845703125 735.43914794921875 724.45782470703125 713.8939208984375 703.739990234375 693.98919677734375 684.635009765625 675.67132568359375 667.09246826171875 658.89300537109375 651.06787109375 643.61236572265625 636.5220947265625 629.79278564453125 623.420654296875 617.40203857421875 611.73358154296875 606.412109375 601.43475341796875 596.79876708984375 592.50164794921875 588.5411376953125 584.9151611328125 581.62176513671875 578.6593017578125 576.0262451171875 573.72119140625 571.7430419921875 570.0906982421875 568.76336669921875 567.7603759765625 567.08123779296875 566.7255859375 566.6932373046875 566.98419189453125 567.5986328125 568.53680419921875 569.79925537109375 571.38653564453125 573.2994384765625 575.5390625 578.10638427734375 581.00286865234375 584.22991943359375 587.78924560546875 591.68267822265625 595.91229248046875 600.4803466796875 605.38922119140625 610.64166259765625 616.240478515625 622.18878173828125 628.48992919921875 635.1474609375 642.16522216796875 649.54736328125 657.29815673828125 665.42236328125 673.92498779296875 682.81121826171875 692.08685302734375 701.7578125 711.83056640625 722.3118896484375 733.2091064453125 744.52996826171875 756.28271484375 768.47613525390625 781.11956787109375 794.2230224609375 807.79730224609375 821.85369873046875 836.40447998046875 851.4627685546875 867.04254150390625 883.158935546875 899.828125 917.06756591796875 934.89617919921875 953.334228515625 972.40386962890625 992.12896728515625 1012.53570556640625 1033.6524658203125 1055.510498046875 1078.143798828125 1101.5902099609375 1125.8912353515625 1151.093017578125 1177.2471923828125 1204.411376953125 1232.650390625 1262.0379638671875 1292.6578369140625 1324.6064453125 1357.9952392578125 1392.954345703125 1429.637939453125 1468.229736328125 1508.9525146484375 1552.0811767578125 1597.960693359375 1647.0345458984375 1699.890625 1757.3359375 1820.5333251953125 1891.2718505859375 1972.5770263671875 2070.4072265625 2200.542236328125 2500 2500 2500 2500 2500 2500 2500 2500 2500 2500 2500 2500 2500 2500 2500 2500 2500 2500 2500 2500 2500 2500
2500 2500 2500 2500 2500 2500 2500 2500 2500 2500 2500 2500 2500 2500 2500 2207.083740234375 2076.119140625 1978.17626953125 1896.9453125 1826.3531494140625 1763.335205078125 1706.085693359375 1653.433349609375 1604.567138671875 1558.89697265625 1515.9776611328125 1475.4635009765625 1437.0794677734375 1400.6024169921875 1365.848388671875 1332.663330078125 1300.9169921875 1270.498046875 1241.3101806640625 1213.2696533203125 1186.302978515625 1160.34521484375 1135.3388671875 1111.2325439453125 1087.980224609375 1065.5401611328125 1043.875 1022.9505615234375 1002.73583984375 983.202392578125 964.32427978515625 946.0775146484375 928.44024658203125 911.39208984375 894.914306640625 878.989501953125 863.60150146484375 848.7353515625 834.37701416015625 820.51348876953125 807.13262939453125 794.2230224609375 781.774169921875 769.7760009765625 758.21929931640625 747.09527587890625 736.395751953125 726.113037109375 716.23992919921875 706.7696533203125 697.6959228515625 689.0126953125 680.71441650390625 672.79583740234375 665.2520751953125 658.07843017578125 651.27069091796875 644.8248291015625 638.73699951171875 633.00372314453125 627.621826171875 622.58819580078125 617.90008544921875 613.554931640625 609.55029296875 605.88409423828125 602.5543212890625 599.55926513671875 596.89727783203125 594.56695556640625 592.56719970703125 590.89678955078125 589.5550537109375 588.5411376953125 587.8546142578125 587.4951171875 587.46240234375 587.75653076171875 588.37762451171875 589.3260498046875 590.6021728515625 592.206787109375 594.140625 596.40472412109375 599.000244140625 601.9285888671875 605.1912841796875 608.79010009765625 612.726806640625 617.00372314453125 621.623046875 626.58734130859375 631.89935302734375 637.56207275390625 643.5787353515625 649.95269775390625 656.687744140625 663.787841796875 671.25726318359375 679.10052490234375 687.32244873046875 695.92822265625 704.92340087890625 714.3138427734375 724.1058349609375 734.30609130859375 744.921630859375 755.96014404296875 767.42962646484375 779.33880615234375 791.69677734375 804.51336669921875 817.799072265625 831.56512451171875 845.823486328125 860.58697509765625 875.86944580078125 891.6856689453125 908.051513671875 924.984130859375 942.50201416015625 960.6251220703125 979.3751220703125 998.7755126953125 1018.851806640625 1039.6318359375 1061.146240234375 1083.428466796875 1106.51513671875 1130.4471435546875 1155.26953125 1181.0325927734375 1207.7926025390625 1235.61279296875 1264.5648193359375 1294.7303466796875 1326.2027587890625 1359.09033203125 1393.51904296875 1429.637939453125 1467.6241455078125 1507.692138671875 1550.105224609375 1595.193359375 1643.3787841796875 1695.2174072265625 1751.4681396484375 1813.2139892578125 1882.100341796875 1960.857177734375 2054.691162109375 2176.46484375 2401.005126953125 2500 2500 2500 2500 2500 2500 2500 2500 2500 2500 2500 2500 2500 2500 2500 2500 2500 2500 2500 2500 2500 2500
2500 2500 2500 2500 2500 2500 2500 2500 2500 2500 2500 2500 2500 2500 2500 2431.6259765625 2186.0732421875 2062.764404296875 1968.4456787109375 1889.5289306640625 1820.625244140625 1758.9365234375 1702.7861328125 1651.07421875 1603.0328369140625 1558.100341796875 1515.8505859375 1475.95166015625 1438.138427734375 1402.1953125 1367.9443359375 1335.236083984375 1303.9439697265625 1273.9595947265625 1245.189208984375 1217.5511474609375 1190.9736328125 1165.393310546875 1140.75390625 1117.0050048828125 1094.1016845703125 1072.003173828125 1050.672607421875 1030.0765380859375 1010.1845703125 990.9688720703125 972.40386962890625 954.46612548828125 937.134033203125 920.3876953125 904.20867919921875 888.579833984375 873.48529052734375 858.910400390625 844.84136962890625 831.26544189453125 818.170654296875 805.54583740234375 793.38055419921875 781.6650390625 770.39019775390625 759.5474853515625 749.1287841796875 739.12664794921875 729.533935546875 720.3441162109375 711.55096435546875 703.1485595703125 695.131591796875 687.49481201171875 680.2335205078125 673.34320068359375 666.8197021484375 660.6590576171875 654.85772705078125 649.4122314453125 644.31951904296875 639.57666015625 635.18096923828125 631.1300048828125 627.42156982421875 624.0535888671875 621.02423095703125 618.33184814453125 615.97503662109375 613.95257568359375 612.26324462890625 610.90631103515625 609.8809814453125 609.18670654296875 608.8231201171875 608.79010009765625 609.0875244140625 609.71563720703125 610.67474365234375 611.96533203125 613.58807373046875 615.5438232421875 617.83367919921875 620.4588623046875 623.420654296875 626.72076416015625 630.36102294921875 634.34326171875 638.6697998046875 643.34307861328125 648.3656005859375 653.74029541015625 659.47021484375 665.55865478515625 672.00927734375 678.825927734375 686.0126953125 693.573974609375 701.5145263671875 709.83941650390625 718.553955078125 727.66400146484375 737.175537109375 747.09527587890625 757.4300537109375 768.1873779296875 779.3751220703125 791.00177001953125 803.0762939453125 815.6083984375 828.60833740234375 842.087158203125 856.05657958984375 870.52923583984375 885.5186767578125 901.0394287109375 917.1070556640625 933.738525390625 950.951904296875 968.766845703125 987.20458984375 1006.2882080078125 1026.042724609375 1046.49560546875 1067.6767578125 1089.618896484375 1112.358154296875 1135.934326171875 1160.391845703125 1185.7796630859375 1212.1529541015625 1239.573486328125 1268.1112060546875 1297.845703125 1328.8680419921875 1361.2835693359375 1395.2149658203125 1430.806396484375 1468.229736328125 1507.692138671875 1549.447509765625 1593.81298828125 1641.1927490234375 1692.116943359375 1747.3048095703125 1807.7752685546875 1875.06005859375 1951.66162109375 2042.233642578125 2157.691650390625 2346.539794921875 2500 2500 2500 2500 2500 2500 2500 2500 2500 2500 2500 2500 2500 2500 2500 2500 2500 2500 2500 2500 2500 2500 2500
2500 2500 2500 2500 2500 2500 2500 2500 2500 2500 2500 2500 2500 2500 2500 2500 2372.819091796875 2170.151611328125 2052.5908203125 1961.205078125 1884.2281494140625 1816.7723388671875 1756.24267578125 1701.063232421875 1650.191162109375 1602.8935546875 1558.63134765625 1516.994384765625 1477.6619873046875 1440.37744140625 1404.9315185546875 1371.1510009765625 1338.890625 1308.02685546875 1278.453857421875 1250.0799560546875 1222.825439453125 1196.6197509765625 1171.401123046875 1147.1141357421875 1123.709716796875 1101.143310546875 1079.3751220703125 1058.3690185546875 1038.092041015625 1018.5142822265625 999.6083984375 981.34930419921875 963.7138671875 946.68096923828125 930.23089599609375 914.3455810546875 899.00811767578125 884.2030029296875 869.9156494140625 856.13262939453125 842.84130859375 830.02996826171875 817.6876220703125 805.80401611328125 794.36962890625 783.37542724609375 772.81298828125 762.67449951171875 752.9525146484375 743.64013671875 734.73089599609375 726.21875 718.097900390625 710.3631591796875 703.00946044921875 696.03216552734375 689.4268798828125 683.18963623046875 677.3165283203125 671.80413818359375 666.64923095703125 661.8487548828125 657.39996337890625 653.30023193359375 649.54736328125 646.13916015625 643.07379150390625 640.3494873046875 637.96484375 635.91845703125 634.20928955078125 632.83636474609375 631.79901123046875 631.0965576171875 630.728759765625 630.6953125 630.99627685546875 631.6317138671875 632.60205078125 633.9078369140625 635.5496826171875 637.52850341796875 639.845458984375 642.501708984375 645.49871826171875 648.83819580078125 652.52197265625 656.5521240234375 660.93096923828125 665.660888671875 670.74468994140625 676.185302734375 681.9859619140625 688.150146484375 694.68145751953125 701.58404541015625 708.86212158203125 716.520263671875 724.56341552734375 732.99688720703125 741.82623291015625 751.05743408203125 760.69696044921875 770.7515869140625 781.2286376953125 792.1358642578125 803.48150634765625 815.27447509765625 827.5242919921875 840.240966796875 853.4354248046875 867.11907958984375 881.3045654296875 896.0050048828125 911.2347412109375 927.00921630859375 943.34490966796875 960.259765625 977.77301025390625 995.90557861328125 1014.68017578125 1034.1214599609375 1054.2562255859375 1075.114013671875 1096.72705078125 1119.1307373046875 1142.3641357421875 1166.4708251953125 1191.4989013671875 1217.50244140625 1244.5418701171875 1272.6859130859375 1302.0120849609375 1332.6097412109375 1364.58154296875 1398.0472412109375 1433.1470947265625 1470.048583984375 1508.9525146484375 1550.105224609375 1593.81298828125 1640.4652099609375 1690.5711669921875 1744.81787109375 1804.173095703125 1870.079345703125 1944.8648681640625 2032.774169921875 2143.384033203125 2313.452392578125 2500 2500 2500 2500 2500 2500 2500 2500 2500 2500 2500 2500 2500 2500 2500 2500 2500 2500 2500 2500 2500 2500 2500 2500
2500 2500 2500 2500 2500 2500 2500 2500 2500 2500 2500 2500 2500 2500 2500 2500 2500 2341.333740234375 2158.605712890625 2045.384765625 1956.3548583984375 1880.9886474609375 1814.7628173828125 1755.2349853515625 1700.90673828125 1650.77978515625 1604.1484375 1560.4921875 1519.4134521484375 1480.6007080078125 1443.803955078125 1408.8194580078125 1375.4779052734375 1343.63720703125 1313.176513671875 1283.9921875 1255.994384765625 1229.1046142578125 1203.2540283203125 1178.3817138671875 1154.4332275390625 1131.360107421875 1109.1190185546875 1087.67041015625 1066.978759765625 1047.01171875 1027.7398681640625 1009.13616943359375 991.17596435546875 973.83648681640625 957.09686279296875 940.93780517578125 925.34130859375 910.2908935546875 895.771240234375 881.7679443359375 868.267822265625 855.25836181640625 842.7281494140625 830.66632080078125 819.062744140625 807.9080810546875 797.1934814453125 786.91070556640625 777.05194091796875 767.61004638671875 758.57818603515625 749.95001220703125 741.7196044921875 733.88134765625 726.43017578125 719.361083984375 712.66961669921875 706.35150146484375 700.40283203125 694.8199462890625 689.5994873046875 684.73828125 680.2335205078125 676.08251953125 672.2828369140625 668.83233642578125 665.72900390625 662.97113037109375 660.55712890625 658.48565673828125 656.75555419921875 655.36590576171875 654.31585693359375 653.6048583984375 653.2325439453125 653.19873046875 653.5032958984375 654.14654541015625 655.12872314453125 656.450439453125 658.11236572265625 660.115478515625 662.46087646484375 665.14984130859375 668.1839599609375 671.56488037109375 675.2945556640625 679.3751220703125 683.8089599609375 688.5986328125 693.7469482421875 699.257080078125 705.13232421875 711.376220703125 717.99267578125 724.98590087890625 732.3603515625 740.1207275390625 748.27227783203125 756.8204345703125 765.77105712890625 775.13043212890625 784.9052734375 795.1026611328125 805.730224609375 816.79620361328125 828.30926513671875 840.27862548828125 852.71435546875 865.62701416015625 879.028076171875 892.9296875 907.344970703125 922.28802490234375 937.7740478515625 953.8192138671875 970.44122314453125 987.65911865234375 1005.493408203125 1023.96649169921875 1043.1026611328125 1062.9283447265625 1083.4725341796875 1104.76708984375 1126.8466796875 1149.75 1173.5196533203125 1198.203125 1223.853515625 1250.5301513671875 1278.3004150390625 1307.2406005859375 1337.438232421875 1368.9937744140625 1402.0245361328125 1436.66796875 1473.087158203125 1511.4783935546875 1552.0811767578125 1595.193359375 1641.1927490234375 1690.5711669921875 1743.99072265625 1802.3790283203125 1867.10986328125 1940.379638671875 2026.1329345703125 2133.01904296875 2291.313720703125 2500 2500 2500 2500 2500 2500 2500 2500 2500 2500 2500 2500 2500 2500 2500 2500 2500 2500 2500 2500 2500 2500 2500 2500 2500
2500 2500 2500 2500 2500 2500 2500 2500 2500 2500 2500 2500 2500 2500 2500 2500 2500 2500 2322.025390625 2151.00146484375 2041.006591796875 1953.83154296875 1879.7783203125 1814.5804443359375 1755.9066162109375 1702.3157958984375 1652.843017578125 1606.803466796875 1563.6907958984375 1523.1171875 1484.7783203125 1448.4296875 1413.87158203125 1380.9378662109375 1349.4892578125 1319.406982421875 1290.5889892578125 1262.947021484375 1236.4039306640625 1210.8917236328125 1186.3504638671875 1162.7266845703125 1139.972412109375 1118.044921875 1096.9051513671875 1076.518310546875 1056.8524169921875 1037.8782958984375 1019.5693359375 1001.90118408203125 984.85150146484375 968.3995361328125 952.5262451171875 937.21405029296875 922.446533203125 908.20855712890625 894.486083984375 881.26593017578125 868.53594970703125 856.28466796875 844.5015869140625 833.17669677734375 822.3006591796875 811.86492919921875 801.861328125 792.2822265625 783.12054443359375 774.36968994140625 766.02337646484375 758.0758056640625 750.521484375 743.35546875 736.57293701171875 730.16949462890625 724.14105224609375 718.4837646484375 713.1942138671875 708.26898193359375 703.7052001953125 699.50006103515625 695.65106201171875 692.156005859375 689.0126953125 686.21942138671875 683.7745361328125 681.67657470703125 679.9244384765625 678.51708984375 677.45367431640625 676.73370361328125 676.356689453125 676.3223876953125 676.630859375 677.2822265625 678.27691650390625 679.61541748046875 681.29852294921875 683.32720947265625 685.70263671875 688.42608642578125 691.499267578125 694.923828125 698.70184326171875 702.8355712890625 707.327392578125 712.18011474609375 717.39654541015625 722.98004150390625 728.9339599609375 735.2620849609375 741.96844482421875 749.057373046875 756.53363037109375 764.402099609375 772.668212890625 781.33770751953125 790.41668701171875 799.9117431640625 809.82989501953125 820.1785888671875 830.9658203125 842.20025634765625 853.89093017578125 866.0477294921875 878.68109130859375 891.80224609375 905.42327880859375 919.5570068359375 934.21746826171875 949.41943359375 965.17913818359375 981.513916015625 998.4425048828125 1015.98516845703125 1034.1640625 1053.0030517578125 1072.5284423828125 1092.7686767578125 1113.755126953125 1135.5220947265625 1158.107666015625 1181.553955078125 1205.90771484375 1231.2210693359375 1257.5528564453125 1284.9691162109375 1313.545166015625 1343.366943359375 1374.533447265625 1407.15966796875 1441.380615234375 1477.3563232421875 1515.2791748046875 1555.3836669921875 1597.960693359375 1643.3787841796875 1692.116943359375 1744.81787109375 1802.3790283203125 1866.123046875 1938.150390625 2022.1925048828125 2126.268798828125 2276.8408203125 2500 2500 2500 2500 2500 2500 2500 2500 2500 2500 2500 2500 2500 2500 2500 2500 2500 2500 2500 2500 2500 2500 2500 2500 2500 2500
2500 2500 2500 2500 2500 2500 2500 2500 2500 2500 2500 2500 2500 2500 2500 2500 2500 2500 2500 2311.121826171875 2147.08349609375 2039.3753662109375 1953.6026611328125 1880.5849609375 1816.2237548828125 1758.26220703125 1705.298828125 1656.3917236328125 1610.8712158203125 1568.240966796875 1528.120361328125 1490.21044921875 1454.2706298828125 1420.1041259765625 1387.5477294921875 1356.4638671875 1326.7353515625 1298.26171875 1270.9556884765625 1244.7410888671875 1219.5509033203125 1195.32568359375 1172.0128173828125 1149.56494140625 1127.939453125 1107.098388671875 1087.0067138671875 1067.633056640625 1048.9486083984375 1030.9271240234375 1013.54449462890625 996.7784423828125 980.60870361328125 965.01629638671875 949.98388671875 935.49530029296875 921.53558349609375 908.09075927734375 895.14801025390625 882.69512939453125 870.72100830078125 859.21514892578125 848.16766357421875 837.569580078125 827.41217041015625 817.6876220703125 808.38836669921875 799.5074462890625 791.038330078125 782.9749755859375 775.3116455078125 768.04302978515625 761.1641845703125 754.6705322265625 748.5577392578125 742.82183837890625 737.459228515625 732.4664306640625 727.84027099609375 723.57806396484375 719.677001953125 716.13482666015625 712.9493408203125 710.11871337890625 707.6412353515625 705.515380859375 703.739990234375 702.31396484375 701.23651123046875 700.50701904296875 700.125 700.09027099609375 700.40283203125 701.06280517578125 702.07061767578125 703.4268798828125 705.13232421875 707.18798828125 709.59503173828125 712.35491943359375 715.46923828125 718.93994140625 722.76898193359375 726.95880126953125 731.511962890625 736.43115234375 741.7196044921875 747.38055419921875 753.4176025390625 759.83477783203125 766.63623046875 773.82647705078125 781.41046142578125 789.39337158203125 797.7808837890625 806.57891845703125 815.7939453125 825.43292236328125 835.5030517578125 846.01239013671875 856.96923828125 868.3826904296875 880.26239013671875 892.61859130859375 905.46246337890625 918.80584716796875 932.6614990234375 947.04315185546875 961.96551513671875 977.444580078125 993.4974365234375 1010.14263916015625 1027.4002685546875 1045.2921142578125 1063.8419189453125 1083.0755615234375 1103.0211181640625 1123.709716796875 1145.17529296875 1167.4554443359375 1190.591796875 1214.63037109375 1239.623046875 1265.627685546875 1292.7095947265625 1320.943115234375 1350.4130859375 1381.2171630859375 1413.4688720703125 1447.3011474609375 1482.8717041015625 1520.3699951171875 1560.026611328125 1602.1275634765625 1647.0345458984375 1695.2174072265625 1747.3048095703125 1804.173095703125 1867.10986328125 1938.150390625 2020.88623046875 2122.93896484375 2268.59130859375 2500 2500 2500 2500 2500 2500 2500 2500 2500 2500 2500 2500 2500 2500 2500 2500 2500 2500 2500 2500 2500 2500 2500 2500 2500 2500 2500
2500 2500 2500 2500 2500 2500 2500 2500 2500 2500 2500 2500 2500 2500 2500 2500 2500 2500 2500 2500 2307.19189453125 2146.7294921875 2040.462158203125 1955.66552734375 1883.4166259765625 1819.7059326171875 1762.31787109375 1709.8734130859375 1661.4447021484375 1616.37109375 1574.16259765625 1534.443115234375 1496.917236328125 1461.3470458984375 1427.537841796875 1395.328125 1364.58154296875 1335.182373046875 1307.031005859375 1280.041015625 1254.1368408203125 1229.252197265625 1205.3282470703125 1182.3126220703125 1160.1585693359375 1138.8240966796875 1118.27099609375 1098.465087890625 1079.3751220703125 1060.9725341796875 1043.2313232421875 1026.1275634765625 1009.6392822265625 993.74639892578125 978.43011474609375 963.6732177734375 949.45977783203125 935.77496337890625 922.60498046875 909.9371337890625 897.7593994140625 886.06072998046875 874.83074951171875 864.05987548828125 853.73907470703125 843.85992431640625 834.41448974609375 825.39556884765625 816.79620361328125 808.61004638671875 800.83111572265625 793.45379638671875 786.47296142578125 779.88372802734375 773.681640625 767.86260986328125 762.42266845703125 757.35833740234375 752.66632080078125 748.3436279296875 744.3875732421875 740.795654296875 737.56561279296875 734.69549560546875 732.18353271484375 730.02825927734375 728.228271484375 726.7825927734375 725.69024658203125 724.95068359375 724.56341552734375 724.52825927734375 724.8450927734375 725.51416015625 726.535888671875 727.91082763671875 729.639892578125 731.7239990234375 734.16448974609375 736.96282958984375 740.1207275390625 743.64013671875 747.523193359375 751.7723388671875 756.3902587890625 761.3798828125 766.744384765625 772.48736572265625 778.61248779296875 785.1239013671875 792.02606201171875 799.32366943359375 807.0218505859375 815.1260986328125 823.642333984375 832.57684326171875 841.93634033203125 851.7281494140625 861.96002197265625 872.64019775390625 883.77752685546875 895.38165283203125 907.46270751953125 920.0316162109375 933.1002197265625 946.68096923828125 960.78753662109375 975.43450927734375 990.6375732421875 1006.4136962890625 1022.78131103515625 1039.76025390625 1057.3721923828125 1075.6405029296875 1094.5908203125 1114.2510986328125 1134.652099609375 1155.827392578125 1177.8143310546875 1200.654052734375 1224.392333984375 1249.080322265625 1274.7755126953125 1301.5426025390625 1329.4552001953125 1358.597412109375 1389.065673828125 1420.97265625 1454.449951171875 1489.653564453125 1526.7708740234375 1566.030029296875 1607.713623046875 1652.1793212890625 1699.890625 1751.4681396484375 1807.7752685546875 1870.079345703125 1940.379638671875 2022.1925048828125 2122.93896484375 2265.906005859375 2500 2500 2500 2500 2500 2500 2500 2500 2500 2500 2500 2500 2500 2500 2500 2500 2500 2500 2500 2500 2500 2500 2500 2500 2500 2500 2500 2500
2500 2500 2500 2500 2500 2500 2500 2500 2500 2500 2500 2500 2500 2500 2500 2500 2500 2500 2500 2500 2500 2309.802734375 2149.928466796875 2044.2862548828125 1960.0462646484375 1888.301513671875 1825.0555419921875 1768.101806640625 1716.067626953125 1668.0294189453125 1623.3302001953125 1581.482177734375 1542.1116943359375 1504.9246826171875 1469.6845703125 1436.1978759765625 1404.3038330078125 1373.8671875 1344.772705078125 1316.92138671875 1290.227294921875 1264.615478515625 1240.0198974609375 1216.382080078125 1193.650146484375 1171.7774658203125 1150.722412109375 1130.4471435546875 1110.9176025390625 1092.1026611328125 1073.9739990234375 1056.5059814453125 1039.6746826171875 1023.45843505859375 1007.837158203125 992.79229736328125 978.306884765625 964.36492919921875 950.951904296875 938.0540771484375 925.65887451171875 913.75445556640625 902.329833984375 891.37481689453125 880.8798828125 870.83612060546875 861.2352294921875 852.0694580078125 843.3316650390625 835.0150146484375 827.11328125 819.62060546875 812.531494140625 805.8409423828125 799.544189453125 793.63690185546875 788.11505126953125 782.9749755859375 778.213134765625 773.82647705078125 769.8121337890625 766.16754150390625 762.89031982421875 759.97845458984375 757.4300537109375 755.24359130859375 753.4176025390625 751.95111083984375 750.84307861328125 750.09283447265625 749.70001220703125 749.664306640625 749.9857177734375 750.6644287109375 751.7008056640625 753.0955810546875 754.84954833984375 756.9638671875 759.43975830078125 762.27880859375 765.4827880859375 769.0537109375 772.993896484375 777.305908203125 781.992431640625 787.056640625 792.5018310546875 798.33172607421875 804.55023193359375 811.16162109375 818.170654296875 825.58221435546875 833.40167236328125 841.63482666015625 850.28790283203125 859.36749267578125 868.8807373046875 878.83526611328125 889.23931884765625 900.1015625 911.43145751953125 923.23907470703125 935.53521728515625 948.33154296875 961.6405029296875 975.4754638671875 989.85101318359375 1004.78265380859375 1020.28717041015625 1036.3829345703125 1053.0894775390625 1070.4283447265625 1088.4228515625 1107.098388671875 1126.482666015625 1146.6060791015625 1167.5023193359375 1189.208251953125 1211.7647705078125 1235.2174072265625 1259.616943359375 1285.0206298828125 1311.4925537109375 1339.10595703125 1367.9443359375 1398.1038818359375 1429.6962890625 1462.8524169921875 1497.7275390625 1534.5079345703125 1573.4202880859375 1614.745849609375 1658.840087890625 1706.1644287109375 1757.3359375 1813.2139892578125 1875.06005859375 1944.8648681640625 2026.1329345703125 2126.268798828125 2268.59130859375 2500 2500 2500 2500 2500 2500 2500 2500 2500 2500 2500 2500 2500 2500 2500 2500 2500 2500 2500 2500 2500 2500 2500 2500 2500 2500 2500 2500 2500
2500 2500 2500 2500 2500 2500 2500 2500 2500 2500 2500 2500 2500 2500 2500 2500 2500 2500 2500 2500 2500 2500 2319.23779296875 2156.780029296875 2050.91748046875 1966.8021240234375 1895.289306640625 1832.3173828125 1775.655517578125 1723.920166015625 1676.1826171875 1631.783447265625 1590.2335205078125 1551.1585693359375 1514.2642822265625 1479.31396484375 1446.1143798828125 1414.5047607421875 1384.3499755859375 1355.5350341796875 1327.961181640625 1301.5426025390625 1276.2047119140625 1251.8814697265625 1228.5146484375 1206.052490234375 1184.44873046875 1163.6617431640625 1143.65380859375 1124.3909912109375 1105.842529296875 1087.980224609375 1070.7781982421875 1054.2130126953125 1038.2630615234375 1022.90826416015625 1008.13037109375 993.912353515625 980.238525390625 967.09423828125 954.46612548828125 942.34149169921875 930.708740234375 919.5570068359375 908.87615966796875 898.65679931640625 888.89013671875 879.56793212890625 870.68267822265625 862.22711181640625 854.1947021484375 846.57928466796875 839.3751220703125 832.57684326171875 826.17950439453125 820.1785888671875 814.56976318359375 809.3492431640625 804.51336669921875 800.058837890625 795.982666015625 792.2822265625 788.95501708984375 785.99884033203125 783.41180419921875 781.1922607421875 779.33880615234375 777.85015869140625 776.72552490234375 775.96405029296875 775.5653076171875 775.529052734375 775.85528564453125 776.544189453125 777.59613037109375 779.01190185546875 780.7923583984375 782.93853759765625 785.45196533203125 788.33416748046875 791.58697509765625 795.212646484375 799.21343994140625 803.592041015625 808.35137939453125 813.4947509765625 819.02557373046875 824.94775390625 831.26544189453125 837.983154296875 845.10577392578125 852.63848876953125 860.58697509765625 868.9573974609375 877.75616455078125 886.99041748046875 896.66754150390625 906.795654296875 917.38348388671875 928.44024658203125 939.9759521484375 952.00128173828125 964.52777099609375 977.5677490234375 991.134521484375 1005.24249267578125 1019.9071044921875 1035.14501953125 1050.9744873046875 1067.4149169921875 1084.4876708984375 1102.216064453125 1120.6251220703125 1139.74267578125 1159.5989990234375 1180.227294921875 1201.66455078125 1223.951416015625 1247.13330078125 1271.2608642578125 1296.390869140625 1322.5875244140625 1349.9239501953125 1378.483154296875 1408.361328125 1439.669921875 1472.53955078125 1507.1253662109375 1543.613525390625 1582.23095703125 1623.2589111328125 1667.053466796875 1714.0770263671875 1764.948974609375 1820.5333251953125 1882.100341796875 1951.66162109375 2032.774169921875 2133.01904296875 2276.8408203125 2500 2500 2500 2500 2500 2500 2500 2500 2500 2500 2500 2500 2500 2500 2500 2500 2500 2500 2500 2500 2500 2500 2500 2500 2500 2500 2500 2500 2500 2500
2500 2500 2500 2500 2500 2500 2500 2500 2500 2500 2500 2500 2500 2500 2500 2500 2500 2500 2500 2500 2500 2500 2500 2336.675048828125 2167.50927734375 2060.483154296875 1976.0247802734375 1904.4539794921875 1841.5548095703125 1785.034912109375 1733.48193359375 1685.951416015625 1641.775146484375 1600.45849609375 1561.623779296875 1524.974365234375 1490.2723388671875 1457.3231201171875 1425.965576171875 1396.0638427734375 1367.5028076171875 1340.1832275390625 1314.0194091796875 1288.9364013671875 1264.868408203125 1241.7572021484375 1219.5509033203125 1198.203125 1177.6724853515625 1157.92138671875 1138.9158935546875 1120.6251220703125 1103.0211181640625 1086.078125 1069.772705078125 1054.0833740234375 1038.9901123046875 1024.474609375 1010.52020263671875 997.11114501953125 984.23284912109375 971.8720703125 960.0162353515625 948.65380859375 937.7740478515625 927.36688232421875 917.4229736328125 907.9337158203125 898.8909912109375 890.28729248046875 882.1156005859375 874.36932373046875 867.04254150390625 860.12957763671875 853.62518310546875 847.52459716796875 841.82330322265625 836.5172119140625 831.6025390625 827.075927734375 822.93408203125 819.17431640625 815.7939453125 812.790771484375 810.1627197265625 807.9080810546875 806.025390625 804.51336669921875 803.3709716796875 802.59759521484375 802.19256591796875 802.15576171875 802.48712158203125 803.18682861328125 804.25531005859375 805.693359375 807.5018310546875 809.6820068359375 812.2352294921875 815.1632080078125 818.46795654296875 822.15167236328125 826.21685791015625 830.66632080078125 835.5030517578125 840.7305908203125 846.3525390625 852.3729248046875 858.79620361328125 865.62701416015625 872.87060546875 880.532470703125 888.61859130859375 897.1353759765625 906.0897216796875 915.489013671875 925.34130859375 935.65509033203125 946.4395751953125 957.70465087890625 969.46087646484375 981.7197265625 994.49346923828125 1007.79522705078125 1021.639404296875 1036.0413818359375 1051.017578125 1066.5863037109375 1082.7667236328125 1099.5804443359375 1117.05029296875 1135.2015380859375 1154.0616455078125 1173.6610107421875 1194.032958984375 1215.2139892578125 1237.2451171875 1260.17138671875 1284.0435791015625 1308.9185791015625 1334.8604736328125 1361.9425048828125 1390.247802734375 1419.8726806640625 1450.928955078125 1483.5478515625 1517.8848876953125 1554.12744140625 1592.50341796875 1633.2965087890625 1676.86572265625 1723.6785888671875 1774.3623046875 1829.7947998046875 1891.2718505859375 1960.857177734375 2042.233642578125 2143.384033203125 2291.313720703125 2500 2500 2500 2500 2500 2500 2500 2500 2500 2500 2500 2500 2500 2500 2500 2500 2500 2500 2500 2500 2500 2500 2500 2500 2500 2500 2500 2500 2500 2500 2500
2500 2500 2500 2500 2500 2500 2500 2500 2500 2500 2500 2500 2500 2500 2500 2500 2500 2500 2500 2500 2500 2500 2500 2500 2365.185302734375 2182.509765625 2073.180419921875 1987.84765625 1915.8980712890625 1852.8524169921875 1796.313232421875 1744.81787109375 1697.3948974609375 1653.359619140625 1612.207763671875 1573.55517578125 1537.1007080078125 1502.6033935546875 1469.866455078125 1438.7271728515625 1409.048583984375 1380.7144775390625 1353.625244140625 1327.694580078125 1302.84716796875 1279.016845703125 1256.1451416015625 1234.1800537109375 1213.0753173828125 1192.7891845703125 1173.2841796875 1154.526123046875 1136.484375 1119.1307373046875 1102.4395751953125 1086.3875732421875 1070.953125 1056.1163330078125 1041.8590087890625 1028.1644287109375 1015.016845703125 1002.40191650390625 990.30633544921875 978.7176513671875 967.6243896484375 957.015869140625 946.88214111328125 937.21405029296875 928.00286865234375 919.24066162109375 910.92010498046875 903.03411865234375 895.576416015625 888.541015625 881.92242431640625 875.71551513671875 869.9156494140625 864.5184326171875 859.5198974609375 854.91644287109375 850.7047119140625 846.8817138671875 843.44482421875 840.3916015625 837.71990966796875 835.427978515625 833.51416015625 831.97723388671875 830.8160400390625 830.02996826171875 829.6182861328125 829.58087158203125 829.91766357421875 830.62884521484375 831.7149658203125 833.17669677734375 835.0150146484375 837.231201171875 839.82684326171875 842.8035888671875 846.16357421875 849.90911865234375 854.0428466796875 858.56768798828125 863.4869384765625 868.80413818359375 874.52313232421875 880.64825439453125 887.18414306640625 894.1357421875 901.508544921875 909.308349609375 917.54144287109375 926.21478271484375 935.33551025390625 944.91156005859375 954.95147705078125 965.4642333984375 976.459716796875 987.94842529296875 999.941650390625 1012.45166015625 1025.4915771484375 1039.07568359375 1053.2191162109375 1067.9385986328125 1083.251953125 1099.1788330078125 1115.740234375 1132.9593505859375 1150.861328125 1169.4737548828125 1188.826904296875 1208.953857421875 1229.8917236328125 1251.68115234375 1274.3675537109375 1298.001708984375 1322.640625 1348.3489990234375 1375.2000732421875 1403.277587890625 1432.6785888671875 1463.5155029296875 1495.9207763671875 1530.051513671875 1566.096923828125 1604.2879638671875 1644.9122314453125 1688.3350830078125 1735.03271484375 1785.6470947265625 1841.0804443359375 1902.672607421875 1972.5770263671875 2054.691162109375 2157.691650390625 2313.452392578125 2500 2500 2500 2500 2500 2500 2500 2500 2500 2500 2500 2500 2500 2500 2500 2500 2500 2500 2500 2500 2500 2500 2500 2500 2500 2500 2500 2500 2500 2500 2500 2500
2500 2500 2500 2500 2500 2500 2500 2500 2500 2500 2500 2500 2500 2500 2500 2500 2500 2500 2500 2500 2500 2500 2500 2500 2500 2415.294677734375 2202.426513671875 2089.29931640625 2002.4560546875 1929.7587890625 1866.3203125 1809.58349609375 1758.0093994140625 1710.585693359375 1666.6033935546875 1625.54296875 1587.0103759765625 1550.6976318359375 1516.3587646484375 1483.7938232421875 1452.837158203125 1423.35009765625 1395.2149658203125 1368.3309326171875 1342.6107177734375 1317.9783935546875 1294.367431640625 1271.7186279296875 1249.97998046875 1229.1046142578125 1209.05078125 1189.780517578125 1171.260009765625 1153.4581298828125 1136.3468017578125 1119.900390625 1104.09521484375 1088.9100341796875 1074.32470703125 1060.3211669921875 1046.8826904296875 1033.9935302734375 1021.639404296875 1009.80706787109375 998.48406982421875 987.65911865234375 977.3214111328125 967.46124267578125 958.06939697265625 949.1373291015625 940.65716552734375 932.62164306640625 925.0238037109375 917.85748291015625 911.11676025390625 904.7962646484375 898.8909912109375 893.39642333984375 888.308349609375 883.62286376953125 879.3365478515625 875.44622802734375 871.94903564453125 868.8424072265625 866.124267578125 863.79248046875 861.8455810546875 860.28204345703125 859.100830078125 858.30120849609375 857.8824462890625 857.84442138671875 858.18695068359375 858.910400390625 860.0152587890625 861.502197265625 863.37237548828125 865.62701416015625 868.267822265625 871.2965087890625 874.71539306640625 878.52691650390625 882.7337646484375 887.33917236328125 892.346435546875 897.7593994140625 903.5821533203125 909.8192138671875 916.4754638671875 923.55621337890625 931.0672607421875 939.01470947265625 947.4053955078125 956.2464599609375 965.54571533203125 975.3115234375 985.55291748046875 996.27960205078125 1007.5020751953125 1019.23162841796875 1031.4803466796875 1044.2613525390625 1057.5888671875 1071.47802734375 1085.945556640625 1101.00927734375 1116.688720703125 1133.005126953125 1149.9814453125 1167.64306640625 1186.0174560546875 1205.1351318359375 1225.0294189453125 1245.7373046875 1267.2996826171875 1289.762451171875 1313.176513671875 1337.5994873046875 1363.0963134765625 1389.740966796875 1417.618408203125 1446.826171875 1477.4786376953125 1509.7095947265625 1543.678955078125 1579.578857421875 1617.6451416015625 1658.171630859375 1701.53271484375 1748.21875 1798.8936767578125 1854.496337890625 1916.433349609375 1986.994140625 2070.4072265625 2176.46484375 2346.539794921875 2500 2500 2500 2500 2500 2500 2500 2500 2500 2500 2500 2500 2500 2500 2500 2500 2500 2500 2500 2500 2500 2500 2500 2500 2500 2500 2500 2500 2500 2500 2500 2500 2500
2500 2500 2500 2500 2500 2500 2500 2500 2500 2500 2500 2500 2500 2500 2500 2500 2500 2500 2500 2500 2500 2500 2500 2500 2500 2500 2500 2228.33837890625 2109.263427734375 2020.1041259765625 1946.217529296875 1882.100341796875 1824.9630126953125 1773.157470703125 1725.6131591796875 1681.5869140625 1640.5379638671875 1602.057861328125 1565.8292236328125 1531.5992431640625 1499.162841796875 1468.350830078125 1439.021728515625 1411.0555419921875 1384.3499755859375 1358.81640625 1334.3778076171875 1310.966796875 1288.523681640625 1266.9954833984375 1246.3353271484375 1226.5008544921875 1207.4541015625 1189.1605224609375 1171.58935546875 1154.7119140625 1138.502685546875 1122.9378662109375 1107.99609375 1093.6572265625 1079.9031982421875 1066.717041015625 1054.0833740234375 1041.9876708984375 1030.416748046875 1019.3582763671875 1008.80084228515625 998.73388671875 989.1475830078125 980.03289794921875 971.38134765625 963.18511962890625 955.43695068359375 948.13018798828125 941.258544921875 934.8162841796875 928.7982177734375 923.199462890625 918.0155029296875 913.2423095703125 908.87615966796875 904.913818359375 901.35211181640625 898.18853759765625 895.42059326171875 893.04638671875 891.06402587890625 889.47210693359375 888.26959228515625 887.4554443359375 887.02911376953125 886.99041748046875 887.33917236328125 888.07568359375 889.20050048828125 890.71441650390625 892.61859130859375 894.914306640625 897.60333251953125 900.6876220703125 904.16949462890625 908.051513671875 912.33660888671875 917.02813720703125 922.12957763671875 927.64508056640625 933.57891845703125 939.9359130859375 946.72119140625 953.94049072265625 961.599853515625 969.7059326171875 978.26580810546875 987.2872314453125 996.7784423828125 1006.74853515625 1017.20703125 1028.1644287109375 1039.6318359375 1051.62158203125 1064.1466064453125 1077.2210693359375 1090.8602294921875 1105.0806884765625 1119.900390625 1135.3388671875 1151.4173583984375 1168.1591796875 1185.5894775390625 1203.736083984375 1222.629638671875 1242.3037109375 1262.7955322265625 1284.1463623046875 1306.4024658203125 1329.615478515625 1353.8433837890625 1379.152099609375 1405.6165771484375 1433.3228759765625 1462.3704833984375 1492.8753662109375 1524.974365234375 1558.83056640625 1594.6409912109375 1632.647705078125 1673.153564453125 1716.546142578125 1763.335205078125 1814.2158203125 1870.1785888671875 1932.725830078125 2004.3438720703125 2089.756103515625 2200.542236328125 2401.005126953125 2500 2500 2500 2500 2500 2500 2500 2500 2500 2500 2500 2500 2500 2500 2500 2500 2500 2500 2500 2500 2500 2500 2500 2500 2500 2500 2500 2500 2500 2500 2500 2500 2500 2500
2500 2500 2500 2500 2500 2500 2500 2500 2500 2500 2500 2500 2500 2500 2500 2500 2500 2500 2500 2500 2500 2500 2500 2500 2500 2500 2500 2500 2262.197509765625 2133.700927734375 2041.1427001953125 1965.5142822265625 1900.3751220703125 1842.599853515625 1790.387451171875 1742.586669921875 1698.4078369140625 1657.2811279296875 1618.779296875 1582.571533203125 1548.3961181640625 1516.0411376953125 1485.33251953125 1456.125 1428.2957763671875 1401.739990234375 1376.3675537109375 1352.0997314453125 1328.8680419921875 1306.6119384765625 1285.27783203125 1264.81787109375 1245.189208984375 1226.3536376953125 1208.2763671875 1190.9259033203125 1174.2738037109375 1158.2939453125 1142.9627685546875 1128.2584228515625 1114.160888671875 1100.6519775390625 1087.714599609375 1075.3333740234375 1063.4937744140625 1052.1826171875 1041.3876953125 1031.0972900390625 1021.30126953125 1011.98956298828125 1003.1533203125 994.7840576171875 986.87408447265625 979.416259765625 972.40386962890625 965.83087158203125 959.69158935546875 953.98089599609375 948.694091796875 943.8267822265625 939.3751220703125 935.33551025390625 931.70477294921875 928.48004150390625 925.65887451171875 923.23907470703125 921.21881103515625 919.5965576171875 918.37109375 917.54144287109375 917.1070556640625 917.06756591796875 917.4229736328125 918.17352294921875 919.31976318359375 920.862548828125 922.8031005859375 925.14288330078125 927.88360595703125 931.02740478515625 934.57672119140625 938.53436279296875 942.9033203125 947.68719482421875 952.8897705078125 958.51531982421875 964.5684814453125 971.05426025390625 977.97833251953125 985.3465576171875 993.16558837890625 1001.4423828125 1010.1845703125 1019.40045166015625 1029.098876953125 1039.28955078125 1049.9827880859375 1061.189697265625 1072.922607421875 1085.1943359375 1098.019287109375 1111.41259765625 1125.3909912109375 1139.972412109375 1155.1766357421875 1171.0247802734375 1187.54052734375 1204.7490234375 1222.6785888671875 1241.35986328125 1260.826904296875 1281.1173095703125 1302.27294921875 1324.340576171875 1347.37255859375 1371.4278564453125 1396.573486328125 1422.8857421875 1450.4525146484375 1479.375244140625 1509.772705078125 1541.7855224609375 1575.581298828125 1611.3634033203125 1649.382568359375 1689.9537353515625 1733.48193359375 1780.503662109375 1831.7559814453125 1888.301513671875 1951.775634765625 2024.9473876953125 2113.282958984375 2231.345947265625 2500 2500 2500 2500 2500 2500 2500 2500 2500 2500 2500 2500 2500 2500 2500 2500 2500 2500 2500 2500 2500 2500 2500 2500 2500 2500 2500 2500 2500 2500 2500 2500 2500 2500 2500 2500
2500 2500 2500 2500 2500 2500 2500 2500 2500 2500 2500 2500 2500 2500 2500 2500 2500 2500 2500 2500 2500 2500 2500 2500 2500 2500 2500 2500 2500 2308.166748046875 2163.5849609375 2066.064453125 1987.9697265625 1921.3809814453125 1862.681396484375 1809.8551025390625 1761.640380859375 1717.1845703125 1675.8792724609375 1637.271728515625 1601.014404296875 1566.8333740234375 1534.5079345703125 1503.857421875 1474.731689453125 1447.0042724609375 1420.5672607421875 1395.328125 1371.2064208984375 1348.1319580078125 1326.04296875 1304.8848876953125 1284.609130859375 1265.172119140625 1246.5347900390625 1228.662109375 1211.522216796875 1195.086181640625 1179.327880859375 1164.2230224609375 1149.75 1135.8885498046875 1122.6202392578125 1109.9281005859375 1097.79638671875 1086.2108154296875 1075.157958984375 1064.62548828125 1054.6021728515625 1045.0772705078125 1036.0413818359375 1027.485107421875 1019.40045166015625 1011.77960205078125 1004.61541748046875 997.9014892578125 991.63165283203125 985.800537109375 980.40301513671875 975.43450927734375 970.89080810546875 966.76812744140625 963.0631103515625 959.77276611328125 956.89434814453125 954.4256591796875 952.36468505859375 950.7098388671875 949.45977783203125 948.613525390625 948.17041015625 948.13018798828125 948.49267578125 949.25823974609375 950.427490234375 952.00128173828125 953.98089599609375 956.367919921875 959.1641845703125 962.3719482421875 965.99383544921875 970.03265380859375 974.49188232421875 979.3751220703125 984.6865234375 990.4305419921875 996.6121826171875 1003.23681640625 1010.3104248046875 1017.83941650390625 1025.8306884765625 1034.2919921875 1043.2313232421875 1052.6575927734375 1062.5804443359375 1073.0101318359375 1083.9580078125 1095.43603515625 1107.4573974609375 1120.0362548828125 1133.18798828125 1146.929443359375 1161.278564453125 1176.25537109375 1191.881103515625 1208.1795654296875 1225.176513671875 1242.900146484375 1261.3818359375 1280.6558837890625 1300.7606201171875 1321.738525390625 1343.63720703125 1366.509765625 1390.416748046875 1415.4263916015625 1441.6168212890625 1469.078125 1497.9146728515625 1528.2490234375 1560.22607421875 1594.0198974609375 1629.8419189453125 1667.954345703125 1708.687744140625 1752.470703125 1799.875 1851.6944580078125 1909.0897216796875 1973.8822021484375 2049.250732421875 2141.81005859375 2271.58154296875 2500 2500 2500 2500 2500 2500 2500 2500 2500 2500 2500 2500 2500 2500 2500 2500 2500 2500 2500 2500 2500 2500 2500 2500 2500 2500 2500 2500 2500 2500 2500 2500 2500 2500 2500 2500 2500
2500 2500 2500 2500 2500 2500 2500 2500 2500 2500 2500 2500 2500 2500 2500 2500 2500 2500 2500 2500 2500 2500 2500 2500 2500 2500 2500 2500 2500 2500 2379.376708984375 2200.542236328125 2095.5869140625 2014.0216064453125 1945.4281005859375 1885.447265625 1831.7559814453125 1782.9400634765625 1738.0616455078125 1696.4609375 1657.652099609375 1621.26513671875 1587.0103759765625 1554.6561279296875 1524.0133056640625 1494.9254150390625 1467.2608642578125 1440.908447265625 1415.772216796875 1391.7694091796875 1368.8280029296875 1346.8846435546875 1325.88330078125 1305.7742919921875 1286.5133056640625 1268.0604248046875 1250.3800048828125 1233.439697265625 1217.2100830078125 1201.66455078125 1186.77880859375 1172.5306396484375 1158.899658203125 1145.867431640625 1133.4166259765625 1121.5316162109375 1110.1978759765625 1099.40185546875 1089.1314697265625 1079.3751220703125 1070.1224365234375 1061.363525390625 1053.0894775390625 1045.2921142578125 1037.9637451171875 1031.0972900390625 1024.6865234375 1018.7252197265625 1013.2081298828125 1008.13037109375 1003.48736572265625 999.275146484375 995.4901123046875 992.12896728515625 989.18896484375 986.6676025390625 984.562744140625 982.872802734375 981.59625244140625 980.7320556640625 980.27960205078125 980.238525390625 980.60870361328125 981.39044189453125 982.58441162109375 984.191650390625 986.21337890625 988.6512451171875 991.50738525390625 994.7840576171875 998.48406982421875 1002.610595703125 1007.1671142578125 1012.1575927734375 1017.58642578125 1023.45843505859375 1029.7789306640625 1036.5537109375 1043.7891845703125 1051.4921875 1059.670166015625 1068.3314208984375 1077.484619140625 1087.139404296875 1097.30615234375 1107.99609375 1119.22119140625 1130.994873046875 1143.331298828125 1156.2459716796875 1169.755615234375 1183.8787841796875 1198.6353759765625 1214.0469970703125 1230.1378173828125 1246.9337158203125 1264.463623046875 1282.75927734375 1301.8555908203125 1321.7916259765625 1342.6107177734375 1364.3614501953125 1387.098388671875 1410.8834228515625 1435.78662109375 1461.8887939453125 1489.282470703125 1518.075927734375 1548.3961181640625 1580.3941650390625 1614.251708984375 1650.191162109375 1688.489013671875 1729.4969482421875 1773.673583984375 1821.6380615234375 1874.260498046875 1932.8360595703125 1999.4503173828125 2077.89208984375 2176.657958984375 2327.735595703125 2500 2500 2500 2500 2500 2500 2500 2500 2500 2500 2500 2500 2500 2500 2500 2500 2500 2500 2500 2500 2500 2500 2500 2500 2500 2500 2500 2500 2500 2500 2500 2500 2500 2500 2500 2500 2500 2500
