ncols        88
nrows        66
xllcorner    176963.431225
yllcorner    376970.31505
cellsize     20.000000000000
NODATA_value  -9999
-9999 -9999 -9999 -9999 -9999 -9999 -9999 -9999 -9999 -9999 -9999 -9999 -9999 -9999 -9999 -9999 -9999 -9999 -9999 -9999 -9999 1062.393798828125 1062.03564453125 1061.76611328125 1061.5655517578125 1061.336181640625 1061.0460205078125 1061.0015869140625 1060.822265625 1061.50927734375 1061.5018310546875 1061.4239501953125 1061.3148193359375 1060.7921142578125 1061.0123291015625 1060.966552734375 1060.7667236328125 1060.711669921875 1060.4835205078125 1060.4334716796875 1060.2430419921875 1060.0631103515625 1059.861328125 1059.7130126953125 1059.7862548828125 1059.6080322265625 1059.2216796875 1059.237060546875 1058.9456787109375 1058.963134765625 1058.8782958984375 1058.7557373046875 1058.6209716796875 1058.5699462890625 1058.3314208984375 1058.0908203125 1057.9925537109375 1057.9952392578125 1057.9072265625 1057.972412109375 1057.8438720703125 1061.1075439453125 1063.370849609375 1064.0491943359375 1064.53515625 1065.0194091796875 1065.3489990234375 1065.85546875 1066.2923583984375 1066.626708984375 1066.9495849609375 1066.182373046875 1066.7464599609375 1067.64697265625 1068.3282470703125 1068.60595703125 1068.2706298828125 1067.7745361328125 1064.395751953125 1064.037353515625 1061.4200439453125 1061.8497314453125 1064.1951904296875 1064.1463623046875 1064.7332763671875 1067.310546875 1067.1768798828125 -9999
-9999 -9999 -9999 -9999 -9999 -9999 -9999 -9999 -9999 -9999 -9999 -9999 -9999 -9999 -9999 -9999 -9999 -9999 -9999 -9999 1062.8612060546875 1062.6295166015625 1062.3653564453125 1062.1053466796875 1061.939453125 1061.79052734375 1061.5677490234375 1061.8494873046875 1061.919921875 1061.718017578125 1061.48388671875 1061.256103515625 1061.0364990234375 1060.932373046875 1060.9873046875 1060.914794921875 1060.640869140625 1060.40283203125 1060.400390625 1060.427734375 1060.3160400390625 1060.1171875 1059.96142578125 1059.8876953125 1059.7308349609375 1059.3760986328125 1059.3194580078125 1059.3489990234375 1059.3123779296875 1059.096923828125 1058.8865966796875 1058.7861328125 1058.5125732421875 1058.4466552734375 1058.16748046875 1058.34814453125 1058.360595703125 1058.11181640625 1057.9833984375 1058.096923828125 1058.3258056640625 1062.5032958984375 1063.473876953125 1063.962646484375 1064.44140625 1064.9432373046875 1065.687255859375 1066.262939453125 1066.7625732421875 1066.9293212890625 1067.0289306640625 1067.0941162109375 1067.34814453125 1066.7191162109375 1067.099853515625 1068.2396240234375 1069.0220947265625 1067.3929443359375 1064.7574462890625 1065.0526123046875 1061.8048095703125 1063.3267822265625 1063.9290771484375 1064.9903564453125 1065.3961181640625 1068.83251953125 1067.8306884765625 -9999
-9999 -9999 -9999 -9999 -9999 -9999 -9999 -9999 -9999 -9999 -9999 -9999 -9999 -9999 -9999 -9999 -9999 -9999 -9999 1062.99169921875 1062.8570556640625 1062.644287109375 1062.550048828125 1062.4320068359375 1062.177490234375 1062.11474609375 1062.1029052734375 1062.05029296875 1061.9698486328125 1061.691650390625 1061.658935546875 1061.5836181640625 1061.373291015625 1061.3419189453125 1061.103515625 1061.181396484375 1060.9578857421875 1060.7646484375 1060.47119140625 1060.4605712890625 1060.3299560546875 1060.3804931640625 1060.195556640625 1059.735595703125 1059.8701171875 1059.63671875 1059.48828125 1059.3692626953125 1059.1417236328125 1059.1292724609375 1059.00146484375 1058.81201171875 1058.690673828125 1058.2828369140625 1058.39208984375 1058.6297607421875 1058.4051513671875 1058.1727294921875 1058.07958984375 1058.44970703125 1058.96044921875 1062.0093994140625 1063.8017578125 1064.2471923828125 1064.824951171875 1065.1546630859375 1066.0380859375 1066.8380126953125 1067.1055908203125 1067.2457275390625 1067.3966064453125 1067.66552734375 1068.592529296875 1068.0555419921875 1067.971923828125 1067.7559814453125 1069.2330322265625 1066.0693359375 1065.16748046875 1065.114990234375 1062.0760498046875 1064.0418701171875 1063.8992919921875 1064.9371337890625 1065.801025390625 1068.008056640625 1068.554443359375 -9999
-9999 -9999 -9999 -9999 -9999 -9999 -9999 -9999 -9999 -9999 -9999 -9999 -9999 -9999 -9999 -9999 -9999 -9999 1063.368896484375 1063.335205078125 1062.9444580078125 1062.7396240234375 1062.4093017578125 1062.3026123046875 1062.3033447265625 1062.109130859375 1062.2186279296875 1062.21484375 1062.0059814453125 1061.80224609375 1061.7110595703125 1061.454345703125 1061.3714599609375 1061.2664794921875 1061.1156005859375 1061.04248046875 1060.8695068359375 1060.8756103515625 1060.80615234375 1060.6295166015625 1060.619384765625 1060.3406982421875 1060.0582275390625 1060.0399169921875 1059.8212890625 1059.7861328125 1059.6092529296875 1059.4466552734375 1059.2525634765625 1059.0865478515625 1058.86474609375 1058.6837158203125 1058.5213623046875 1058.2227783203125 1058.4298095703125 1058.7607421875 1058.4752197265625 1058.1610107421875 1058.429443359375 1059.0250244140625 1060.755859375 1061.6854248046875 1064.173095703125 1064.5465087890625 1065.178955078125 1065.6767578125 1066.422119140625 1067.2808837890625 1067.428955078125 1067.7530517578125 1067.4635009765625 1067.6220703125 1068.136962890625 1068.5150146484375 1068.97509765625 1069.1170654296875 1069.4053955078125 1065.8387451171875 1065.11083984375 1065.65283203125 1062.34326171875 1064.7054443359375 1064.2982177734375 1065.556396484375 1066.1558837890625 1068.7923583984375 1068.7772216796875 -9999
-9999 -9999 -9999 -9999 -9999 -9999 -9999 -9999 -9999 -9999 -9999 -9999 -9999 -9999 -9999 -9999 -9999 1063.4041748046875 1063.0443115234375 1063.01611328125 1063.0933837890625 1062.8369140625 1062.489501953125 1062.4320068359375 1062.4154052734375 1062.339111328125 1062.3316650390625 1062.1595458984375 1062.0142822265625 1061.7919921875 1061.5296630859375 1061.203125 1061.1318359375 1060.8729248046875 1060.7760009765625 1060.72802734375 1060.6466064453125 1060.4427490234375 1060.2213134765625 1060.1781005859375 1060.15966796875 1060.278564453125 1060.18896484375 1059.98583984375 1059.9937744140625 1059.7496337890625 1059.572998046875 1059.284912109375 1059.2978515625 1059.2659912109375 1059.111083984375 1058.9544677734375 1059.0274658203125 1058.5390625 1058.583740234375 1058.745849609375 1058.314453125 1058.5712890625 1059.0284423828125 1059.469970703125 1061.791015625 1062.4964599609375 1064.456298828125 1065.1563720703125 1065.716552734375 1066.194091796875 1067.0452880859375 1067.54736328125 1068.0416259765625 1068.2393798828125 1067.794921875 1067.879638671875 1068.2052001953125 1068.5462646484375 1069.033203125 1069.780517578125 1069.8848876953125 1066.31396484375 1065.669921875 1065.9539794921875 1062.578369140625 1065.051513671875 1064.65673828125 1065.7230224609375 1067.503173828125 1069.150634765625 1068.90283203125 -9999
-9999 -9999 -9999 -9999 -9999 -9999 -9999 -9999 -9999 -9999 -9999 -9999 -9999 -9999 -9999 -9999 1063.406494140625 1063.2860107421875 1063.0206298828125 1062.89599609375 1062.94287109375 1062.864013671875 1062.4964599609375 1062.4102783203125 1062.34619140625 1062.115966796875 1061.899169921875 1062.0999755859375 1062.060546875 1061.848876953125 1061.6236572265625 1061.57861328125 1061.53759765625 1061.300048828125 1061.21923828125 1060.987060546875 1060.8856201171875 1060.8795166015625 1060.8814697265625 1060.720703125 1060.4169921875 1060.3077392578125 1060.1448974609375 1060.068603515625 1059.9251708984375 1059.782470703125 1059.6956787109375 1059.7298583984375 1059.6451416015625 1059.4417724609375 1059.2454833984375 1059.079345703125 1058.6068115234375 1058.7933349609375 1058.6492919921875 1058.755859375 1058.680908203125 1058.8057861328125 1059.31884765625 1061.507568359375 1061.3232421875 1062.3880615234375 1063.9947509765625 1064.8226318359375 1065.5496826171875 1066.08837890625 1066.9583740234375 1067.8446044921875 1068.4541015625 1069.0325927734375 1068.59814453125 1068.0257568359375 1068.1768798828125 1069.6947021484375 1069.5123291015625 1070.0048828125 1069.7266845703125 1067.48828125 1066.19189453125 1066.507080078125 1062.898681640625 1065.8682861328125 1065.139892578125 1066.435546875 1067.878173828125 1068.8021240234375 1069.022216796875 -9999
-9999 -9999 -9999 -9999 -9999 -9999 -9999 -9999 -9999 -9999 -9999 -9999 -9999 -9999 -9999 1063.4840087890625 1063.387451171875 1063.250244140625 1063.1136474609375 1062.7657470703125 1062.763916015625 1062.900146484375 1062.721923828125 1062.5616455078125 1062.4232177734375 1062.2464599609375 1062.2431640625 1061.9320068359375 1061.81884765625 1061.7587890625 1061.810791015625 1061.701171875 1061.6129150390625 1061.361572265625 1061.2867431640625 1061.17041015625 1061.12744140625 1060.7913818359375 1060.4930419921875 1060.55859375 1060.483642578125 1060.46875 1060.29296875 1060.270263671875 1060.06982421875 1060.0213623046875 1059.8671875 1059.77783203125 1059.5367431640625 1059.4173583984375 1059.213134765625 1058.93408203125 1058.6971435546875 1059.0052490234375 1058.8961181640625 1059.0582275390625 1059.1383056640625 1059.1351318359375 1060.920654296875 1061.8785400390625 1061.8848876953125 1062.4761962890625 1064.591552734375 1065.1634521484375 1065.4569091796875 1065.9920654296875 1066.7093505859375 1067.198974609375 1068.2061767578125 1069.339111328125 1068.842041015625 1068.199951171875 1068.2333984375 1069.44091796875 1070.3726806640625 1070.640869140625 1070.3946533203125 1069.9390869140625 1066.5782470703125 1067.3209228515625 1063.110107421875 1068.1180419921875 1067.4501953125 1067.0673828125 1068.31640625 1067.891357421875 1069.4761962890625 -9999
-9999 -9999 -9999 -9999 -9999 -9999 -9999 -9999 -9999 -9999 -9999 -9999 -9999 -9999 1063.501708984375 1063.1475830078125 1063.4189453125 1063.1348876953125 1063.2274169921875 1062.7799072265625 1062.5863037109375 1062.6156005859375 1062.615966796875 1062.5091552734375 1062.2557373046875 1062.1646728515625 1061.9986572265625 1062.156005859375 1061.92919921875 1061.6923828125 1061.77685546875 1061.68115234375 1061.4862060546875 1061.278564453125 1061.258544921875 1061.134765625 1061.0321044921875 1060.849853515625 1060.813232421875 1060.4935302734375 1060.326416015625 1060.05322265625 1060.063232421875 1059.899658203125 1059.7301025390625 1059.9207763671875 1059.911865234375 1059.733154296875 1059.6064453125 1059.3363037109375 1059.1285400390625 1058.9150390625 1059.1546630859375 1058.78271484375 1059.5123291015625 1059.39990234375 1059.68017578125 1061.575927734375 1062.0301513671875 1061.80517578125 1061.8746337890625 1064.8944091796875 1065.858154296875 1066.2059326171875 1066.0517578125 1066.4315185546875 1067.3006591796875 1067.66455078125 1069.0120849609375 1069.631591796875 1069.863037109375 1068.7022705078125 1068.782470703125 1070.589599609375 1072.012451171875 1072.1546630859375 1070.948486328125 1070.176513671875 1066.9647216796875 1067.035400390625 1063.384033203125 1066.5125732421875 1065.6993408203125 1067.533203125 1068.3641357421875 1068.5491943359375 1069.9376220703125 -9999
-9999 -9999 -9999 -9999 -9999 -9999 -9999 -9999 -9999 -9999 -9999 -9999 -9999 1063.265869140625 1063.1197509765625 1063.1910400390625 1062.9451904296875 1062.872314453125 1063.031494140625 1063.0897216796875 1062.8819580078125 1062.3748779296875 1062.2332763671875 1062.17724609375 1062.0557861328125 1061.8543701171875 1061.6951904296875 1061.6180419921875 1061.455810546875 1061.501220703125 1061.5452880859375 1061.550048828125 1061.4329833984375 1061.3759765625 1061.2039794921875 1061.0723876953125 1061.034912109375 1060.745361328125 1060.4866943359375 1060.4112548828125 1060.5699462890625 1060.4088134765625 1060.241455078125 1060.107177734375 1059.9779052734375 1059.7886962890625 1059.362060546875 1059.506103515625 1059.5247802734375 1059.195556640625 1059.22802734375 1059.037841796875 1059.1185302734375 1059.90771484375 1059.86328125 1061.1488037109375 1062.24951171875 1062.212890625 1062.3319091796875 1062.1888427734375 1062.8531494140625 1065.5333251953125 1066.0045166015625 1066.7703857421875 1066.9981689453125 1067.2918701171875 1067.791259765625 1068.9588623046875 1070.089599609375 1070.1444091796875 1070.28076171875 1070.17333984375 1070.329345703125 1071.01171875 1071.890380859375 1072.3013916015625 1071.9510498046875 1070.4652099609375 1067.1846923828125 1067.3408203125 1063.782958984375 1066.5994873046875 1066.550537109375 1068.6920166015625 1069.0875244140625 1069.22509765625 1069.5528564453125 -9999
-9999 -9999 -9999 -9999 -9999 -9999 -9999 -9999 -9999 -9999 -9999 -9999 -9999 1063.0546875 1062.9178466796875 1062.6744384765625 1062.803466796875 1063.025146484375 1062.903076171875 1062.8485107421875 1062.7562255859375 1062.694091796875 1062.421630859375 1062.335205078125 1062.2744140625 1062.2156982421875 1062.1416015625 1062.015380859375 1061.9437255859375 1061.8380126953125 1061.6383056640625 1061.333984375 1061.3306884765625 1061.285888671875 1061.1854248046875 1061.0264892578125 1060.857421875 1060.790771484375 1060.6817626953125 1060.430908203125 1060.494873046875 1060.436279296875 1060.3258056640625 1060.0360107421875 1059.849853515625 1059.7476806640625 1059.5765380859375 1059.3958740234375 1059.1343994140625 1059.169921875 1059.22412109375 1059.8221435546875 1059.7928466796875 1060.2235107421875 1062.5321044921875 1062.57373046875 1062.5906982421875 1062.6053466796875 1062.7696533203125 1063.6029052734375 1065.3135986328125 1065.76708984375 1066.2288818359375 1066.7613525390625 1067.302001953125 1068.07177734375 1068.3270263671875 1069.6324462890625 1069.607421875 1069.8424072265625 1070.3297119140625 1071.052490234375 1070.931884765625 1071.306884765625 1071.8463134765625 1072.2110595703125 1072.5128173828125 1072.0791015625 1068.1016845703125 1067.875244140625 1064.264404296875 1066.17822265625 1066.785400390625 1068.862548828125 1069.0625 1069.3734130859375 1069.6944580078125 -9999
-9999 -9999 -9999 -9999 -9999 -9999 -9999 -9999 -9999 -9999 -9999 -9999 1063.98876953125 1064.0635986328125 1063.9853515625 1063.6971435546875 1062.609619140625 1062.7694091796875 1062.7930908203125 1062.7288818359375 1062.6746826171875 1062.787109375 1062.4937744140625 1062.27001953125 1062.1888427734375 1062.2376708984375 1062.221923828125 1062.0164794921875 1061.9063720703125 1061.6549072265625 1061.5321044921875 1061.2974853515625 1061.303466796875 1061.0753173828125 1061.082763671875 1060.8721923828125 1060.7564697265625 1060.7884521484375 1060.66162109375 1060.2073974609375 1060.2918701171875 1060.1788330078125 1060.0311279296875 1059.8140869140625 1059.626708984375 1059.5360107421875 1059.80615234375 1059.999755859375 1059.839599609375 1059.9005126953125 1059.9686279296875 1060.57275390625 1061.7816162109375 1062.830322265625 1062.3922119140625 1062.745849609375 1062.9954833984375 1063.2655029296875 1063.3507080078125 1063.98095703125 1065.5048828125 1065.9139404296875 1066.1998291015625 1066.744384765625 1067.251953125 1068.5626220703125 1069.403564453125 1068.5382080078125 1069.5250244140625 1069.946533203125 1070.477294921875 1070.8990478515625 1071.4915771484375 1071.9920654296875 1072.289306640625 1072.3829345703125 1072.9833984375 1073.098876953125 1070.0595703125 1068.1651611328125 1064.2989501953125 1066.9901123046875 1068.265869140625 1069.0374755859375 1069.32470703125 1069.6221923828125 1071.331787109375 1071.907470703125
-9999 -9999 -9999 -9999 -9999 -9999 -9999 -9999 -9999 -9999 -9999 1063.9683837890625 1063.760009765625 1064.07373046875 1063.8028564453125 1063.5618896484375 1063.4853515625 1062.352783203125 1062.396728515625 1062.77734375 1062.636474609375 1062.3211669921875 1062.573486328125 1062.603759765625 1062.47265625 1061.98583984375 1061.7978515625 1061.9774169921875 1061.8460693359375 1061.7562255859375 1061.61962890625 1061.411865234375 1061.448486328125 1061.5498046875 1061.2342529296875 1061.0091552734375 1060.825927734375 1060.7279052734375 1060.7357177734375 1060.6182861328125 1060.2239990234375 1060.038818359375 1059.885986328125 1059.8023681640625 1059.8675537109375 1060.3934326171875 1059.8819580078125 1060.3544921875 1061.84130859375 1062.0072021484375 1063.1412353515625 1062.9791259765625 1062.5257568359375 1062.404296875 1062.5738525390625 1062.9229736328125 1063.266357421875 1063.5902099609375 1063.72119140625 1064.012939453125 1065.4273681640625 1065.679443359375 1066.1171875 1066.6309814453125 1067.312744140625 1068.7630615234375 1068.775146484375 1069.1290283203125 1069.3487548828125 1069.85791015625 1070.4896240234375 1070.691162109375 1071.326904296875 1071.7265625 1072.5093994140625 1072.6649169921875 1073.0303955078125 1073.813232421875 1073.720947265625 1068.849853515625 1064.7342529296875 1067.8526611328125 1068.6104736328125 1069.5712890625 1070.16162109375 1070.0343017578125 1072.008056640625 1071.8013916015625
-9999 -9999 -9999 -9999 -9999 -9999 -9999 -9999 -9999 -9999 1064.01708984375 1064.0352783203125 1063.8270263671875 1063.4556884765625 1063.345947265625 1063.126220703125 1063.0474853515625 1063.0218505859375 1062.3504638671875 1062.2454833984375 1062.36962890625 1062.4698486328125 1062.4735107421875 1061.985107421875 1062.18359375 1061.8885498046875 1061.601318359375 1061.5650634765625 1061.585693359375 1061.5595703125 1061.44873046875 1061.39697265625 1061.450439453125 1061.3349609375 1061.0877685546875 1060.9791259765625 1060.8126220703125 1060.72607421875 1060.60546875 1060.1954345703125 1060.3612060546875 1060.3172607421875 1060.6146240234375 1060.4205322265625 1060.3177490234375 1059.8680419921875 1060.7369384765625 1061.0037841796875 1063.4061279296875 1062.7337646484375 1062.565185546875 1062.484375 1062.5552978515625 1062.494384765625 1062.572021484375 1063.0684814453125 1063.6392822265625 1064.03173828125 1064.3330078125 1064.7437744140625 1065.3486328125 1065.62158203125 1066.0347900390625 1066.5255126953125 1067.2496337890625 1067.67041015625 1068.5411376953125 1069.414306640625 1069.6107177734375 1070.012451171875 1070.5902099609375 1070.6300048828125 1070.9173583984375 1071.87109375 1072.6016845703125 1073.001708984375 1073.606689453125 1074.058349609375 1074.511962890625 1068.9239501953125 1065.14111328125 1068.8446044921875 1068.8875732421875 1069.790771484375 1070.42138671875 1070.193603515625 1071.82275390625 1072.388671875
-9999 -9999 -9999 -9999 -9999 -9999 -9999 -9999 -9999 1064.0078125 1064.046875 1064.1927490234375 1064.1640625 1063.882080078125 1063.217041015625 1063.09375 1063.1011962890625 1062.86083984375 1062.690185546875 1062.5609130859375 1062.189208984375 1062.050537109375 1062.0418701171875 1062.1727294921875 1062.1539306640625 1062.1610107421875 1061.9715576171875 1061.9678955078125 1062.030517578125 1061.69873046875 1061.4376220703125 1061.40185546875 1061.31005859375 1061.122314453125 1060.7852783203125 1061.0438232421875 1061.03271484375 1061.003173828125 1060.98974609375 1060.931884765625 1060.734130859375 1060.872802734375 1060.647216796875 1060.384765625 1060.034912109375 1060.660888671875 1061.33544921875 1063.635498046875 1062.5338134765625 1062.32568359375 1062.4139404296875 1062.16748046875 1062.463623046875 1062.630126953125 1062.715576171875 1063.339599609375 1064.2777099609375 1064.5260009765625 1064.720458984375 1065.2159423828125 1065.5125732421875 1066.010498046875 1066.335205078125 1066.9278564453125 1067.6324462890625 1068.0208740234375 1068.5604248046875 1069.4462890625 1069.8980712890625 1070.1741943359375 1070.7803955078125 1071.1729736328125 1072.2279052734375 1072.6376953125 1072.814697265625 1073.403564453125 1073.98779296875 1074.6170654296875 1075.33447265625 1069.2294921875 1066.0489501953125 1069.344482421875 1069.502685546875 1070.326171875 1070.5350341796875 1071.3033447265625 1072.81494140625 1073.2381591796875
-9999 -9999 -9999 -9999 -9999 -9999 -9999 -9999 1064.2264404296875 1064.06591796875 1064.198974609375 1064.1688232421875 1063.8682861328125 1063.7335205078125 1063.5189208984375 1063.383544921875 1063.384521484375 1063.1824951171875 1062.8800048828125 1062.798583984375 1062.592529296875 1062.6243896484375 1062.197509765625 1062.4302978515625 1062.173095703125 1062.0848388671875 1062.0201416015625 1062.013916015625 1061.9132080078125 1061.66259765625 1061.8343505859375 1061.6295166015625 1061.46826171875 1061.1689453125 1061.315185546875 1061.5030517578125 1061.41357421875 1061.31298828125 1061.2203369140625 1061.12841796875 1060.833984375 1060.4371337890625 1060.3499755859375 1060.396728515625 1060.8966064453125 1061.08642578125 1063.5914306640625 1062.9747314453125 1062.64404296875 1062.67529296875 1062.6494140625 1062.8785400390625 1062.9798583984375 1062.7955322265625 1062.883544921875 1063.3560791015625 1063.9893798828125 1064.4483642578125 1065.0458984375 1065.5322265625 1065.9951171875 1066.6268310546875 1067.318115234375 1067.8455810546875 1068.76123046875 1068.888427734375 1069.2166748046875 1069.4864501953125 1070.123291015625 1070.8028564453125 1071.2293701171875 1072.0357666015625 1072.5462646484375 1073.3668212890625 1074.160400390625 1074.0860595703125 1074.234375 1075.06982421875 1076.0692138671875 1070.9765625 1066.4681396484375 1069.232666015625 1070.1929931640625 1069.9644775390625 1070.54833984375 1072.95849609375 1073.3731689453125 1073.6239013671875
-9999 -9999 -9999 -9999 -9999 -9999 -9999 -9999 1064.3397216796875 1064.2572021484375 1064.232666015625 1064.0047607421875 1063.6729736328125 1063.8922119140625 1063.9217529296875 1063.5714111328125 1063.3680419921875 1063.164306640625 1062.6953125 1062.890380859375 1064.1373291015625 1064.0313720703125 1063.925537109375 1063.484375 1063.1273193359375 1062.7327880859375 1062.4046630859375 1062.3135986328125 1062.306396484375 1062.0357666015625 1061.7490234375 1061.574462890625 1061.3143310546875 1061.564453125 1061.5224609375 1061.303955078125 1061.188232421875 1060.98876953125 1060.7742919921875 1060.579345703125 1060.8062744140625 1060.8709716796875 1060.6947021484375 1061.0419921875 1061.2462158203125 1062.2354736328125 1063.317626953125 1063.02734375 1062.634033203125 1062.8380126953125 1062.9200439453125 1063.209228515625 1063.3944091796875 1063.183837890625 1063.5025634765625 1063.8157958984375 1064.0203857421875 1064.601806640625 1065.2559814453125 1065.8092041015625 1066.9346923828125 1067.6060791015625 1068.786865234375 1070.153076171875 1070.8482666015625 1070.9476318359375 1070.8946533203125 1070.2767333984375 1071.316162109375 1073.4769287109375 1072.107177734375 1072.424072265625 1073.1142578125 1074.2152099609375 1074.80419921875 1074.5067138671875 1076.3836669921875 1076.900390625 1077.211669921875 1075.30029296875 1069.390380859375 1067.042724609375 1070.6761474609375 1070.398193359375 1070.8284912109375 1073.89306640625 1073.9656982421875 1074.27880859375
-9999 -9999 -9999 -9999 -9999 -9999 -9999 -9999 1064.37548828125 1064.2464599609375 1063.94677734375 1063.867431640625 1064.154052734375 1064.138916015625 1063.80517578125 1063.6195068359375 1063.697509765625 1063.471435546875 1063.6981201171875 1063.59912109375 1063.531982421875 1063.39404296875 1063.4310302734375 1063.34228515625 1063.3292236328125 1063.04931640625 1062.72705078125 1062.6549072265625 1062.648193359375 1062.592041015625 1062.380859375 1061.8375244140625 1061.6817626953125 1061.6395263671875 1061.5380859375 1061.2735595703125 1061.074462890625 1060.98876953125 1061.1693115234375 1061.2525634765625 1060.933837890625 1061.189453125 1061.492919921875 1061.3040771484375 1061.630859375 1063.756103515625 1063.4105224609375 1063.1837158203125 1062.777099609375 1062.7674560546875 1062.907470703125 1063.4393310546875 1063.523681640625 1063.4112548828125 1063.455322265625 1063.7899169921875 1064.3779296875 1064.60986328125 1066.0865478515625 1066.54296875 1068.0162353515625 1069.8782958984375 1071.01513671875 1072.8272705078125 1073.857421875 1074.10693359375 1073.15771484375 1075.2147216796875 1074.7794189453125 1075.464599609375 1073.6729736328125 1074.1669921875 1074.0140380859375 1074.3623046875 1074.91943359375 1075.6356201171875 1077.9776611328125 1079.4766845703125 1078.2332763671875 1076.114990234375 1072.6861572265625 1066.8388671875 1070.653076171875 1071.018798828125 1073.138916015625 1074.7216796875 1074.976806640625 1077.267333984375
-9999 -9999 -9999 -9999 -9999 -9999 -9999 -9999 1064.27197265625 1064.2847900390625 1064.3795166015625 1064.2061767578125 1064.0806884765625 1064.0164794921875 1063.8494873046875 1064.0672607421875 1063.5810546875 1063.5438232421875 1063.7772216796875 1063.4881591796875 1063.2283935546875 1063.1593017578125 1063.108642578125 1062.9151611328125 1062.90234375 1063.1090087890625 1063.077880859375 1062.718017578125 1062.5885009765625 1062.46240234375 1062.5965576171875 1062.453369140625 1062.163330078125 1061.773193359375 1061.39697265625 1061.742919921875 1061.4058837890625 1061.5830078125 1061.386962890625 1061.1783447265625 1061.6865234375 1061.6912841796875 1061.6607666015625 1061.4532470703125 1063.582275390625 1063.6925048828125 1063.6005859375 1063.33984375 1063.212890625 1063.2099609375 1063.4027099609375 1063.37841796875 1063.1309814453125 1063.154541015625 1063.252197265625 1063.9075927734375 1064.605224609375 1065.6036376953125 1067.040771484375 1068.8087158203125 1070.7325439453125 1072.1785888671875 1073.5040283203125 1075.3204345703125 1077.42236328125 1076.9283447265625 1076.7449951171875 1076.2138671875 1076.6680908203125 1078.9896240234375 1077.31005859375 1076.471923828125 1075.320556640625 1075.044921875 1075.4696044921875 1075.8515625 1077.3138427734375 1078.930419921875 1078.214111328125 1077.58837890625 1074.6361083984375 1070.9967041015625 1067.8779296875 1071.8179931640625 1072.9822998046875 1075.251708984375 1076.5125732421875 1086.1063232421875
-9999 -9999 -9999 -9999 -9999 -9999 -9999 1065.0079345703125 1064.9039306640625 1064.87353515625 1064.818115234375 1064.59326171875 1064.6107177734375 1064.472412109375 1063.97314453125 1063.63671875 1063.5545654296875 1063.4029541015625 1063.18310546875 1063.22216796875 1063.05322265625 1062.9632568359375 1062.7315673828125 1062.84814453125 1062.8074951171875 1062.6773681640625 1062.5968017578125 1062.70947265625 1062.5341796875 1062.484619140625 1062.393798828125 1062.3253173828125 1062.1162109375 1062.0909423828125 1062.01708984375 1061.9615478515625 1061.830322265625 1061.6102294921875 1061.4835205078125 1061.607421875 1061.8994140625 1061.5567626953125 1061.7398681640625 1063.751220703125 1063.523681640625 1063.620849609375 1063.6259765625 1063.3145751953125 1063.23779296875 1063.0206298828125 1063.0047607421875 1063.0648193359375 1063.44775390625 1063.4378662109375 1063.71875 1064.6778564453125 1065.4498291015625 1067.0828857421875 1069.0218505859375 1071.7596435546875 1073.6077880859375 1075.6761474609375 1077.5948486328125 1078.663330078125 1080.917724609375 1082.368408203125 1080.8916015625 1082.5379638671875 1082.8929443359375 1082.412353515625 1081.3494873046875 1079.81396484375 1078.4766845703125 1077.7412109375 1077.114013671875 1076.25341796875 1076.3759765625 1077.3072509765625 1077.2806396484375 1077.5909423828125 1078.5361328125 1073.7921142578125 1068.4244384765625 1069.9302978515625 1072.173583984375 1075.0928955078125 1077.0902099609375 1088.58984375
-9999 -9999 -9999 -9999 -9999 -9999 -9999 1065.56787109375 1065.3829345703125 1065.483642578125 1065.1888427734375 1064.8907470703125 1064.579345703125 1064.3626708984375 1063.8284912109375 1063.7498779296875 1063.5555419921875 1063.4490966796875 1063.5531005859375 1063.4266357421875 1063.556396484375 1063.5767822265625 1063.285888671875 1063.19091796875 1063.0948486328125 1063.0418701171875 1062.804931640625 1062.6484375 1062.5972900390625 1062.4871826171875 1062.4031982421875 1062.265869140625 1061.88720703125 1061.9461669921875 1061.7166748046875 1062.05615234375 1061.70361328125 1061.773681640625 1061.69384765625 1061.9200439453125 1062.1112060546875 1063.522216796875 1064.2874755859375 1063.6083984375 1063.472412109375 1063.296875 1063.2630615234375 1063.224609375 1062.88427734375 1062.78857421875 1063.9754638671875 1065.3194580078125 1067.692138671875 1070.28076171875 1070.2415771484375 1067.114501953125 1066.806884765625 1069.6038818359375 1071.451416015625 1074.4892578125 1077.982177734375 1080.29736328125 1082.137939453125 1083.5020751953125 1085.0281982421875 1087.0789794921875 1087.709716796875 1087.7279052734375 1088.0174560546875 1087.339111328125 1086.16552734375 1083.6810302734375 1082.082275390625 1080.5069580078125 1079.567626953125 1078.330810546875 1077.0638427734375 1076.9736328125 1076.961669921875 1077.694091796875 1079.1829833984375 1078.5751953125 1073.7725830078125 1068.738037109375 1071.2379150390625 1072.9278564453125 1083.7720947265625 1095.45654296875
-9999 -9999 -9999 -9999 -9999 -9999 -9999 1065.6402587890625 1065.8212890625 1065.6068115234375 1065.3936767578125 1065.2794189453125 1064.6875 1064.5396728515625 1064.0408935546875 1063.88525390625 1063.9150390625 1063.944091796875 1064.1734619140625 1064.0447998046875 1063.972412109375 1064.438232421875 1063.549072265625 1063.222900390625 1063.0098876953125 1062.886962890625 1062.8804931640625 1062.70703125 1062.397705078125 1062.7401123046875 1062.99072265625 1062.8868408203125 1062.9984130859375 1062.8262939453125 1062.8568115234375 1062.548828125 1063.7159423828125 1065.54638671875 1065.602783203125 1065.4329833984375 1065.0855712890625 1063.9661865234375 1063.3663330078125 1063.4210205078125 1063.0809326171875 1062.817626953125 1062.9464111328125 1066.8819580078125 1066.18701171875 1069.3236083984375 1072.4908447265625 1079.6844482421875 1083.5167236328125 1084.283447265625 1080.7843017578125 1078.52978515625 1078.4254150390625 1080.0135498046875 1089.0985107421875 1087.502197265625 1090.3421630859375 1087.75390625 1087.831298828125 1088.542236328125 1090.2354736328125 1092.11181640625 1094.6414794921875 1093.6328125 1094.656005859375 1092.8197021484375 1091.426513671875 1088.5059814453125 1085.8743896484375 1083.939453125 1082.253662109375 1080.3394775390625 1078.66162109375 1077.9766845703125 1076.941162109375 1079.489013671875 1081.5347900390625 1081.1412353515625 1086.355224609375 1072.442138671875 1069.502197265625 1071.7913818359375 1076.6727294921875 1097.7626953125
-9999 -9999 -9999 -9999 -9999 -9999 -9999 1066.0947265625 1065.951416015625 1065.7406005859375 1065.5821533203125 1065.2440185546875 1065.091064453125 1064.9202880859375 1064.822998046875 1064.5963134765625 1064.539306640625 1064.584228515625 1064.1529541015625 1064.6126708984375 1065.2420654296875 1065.2620849609375 1064.774658203125 1064.7781982421875 1064.0926513671875 1064.181640625 1064.0804443359375 1064.26171875 1064.4666748046875 1064.26806640625 1063.9337158203125 1063.5936279296875 1063.8359375 1063.9638671875 1064.258544921875 1065.2880859375 1065.5762939453125 1065.6282958984375 1071.5823974609375 1071.0010986328125 1069.401611328125 1067.631103515625 1064.0958251953125 1063.2552490234375 1066.7144775390625 1067.745361328125 1069.0970458984375 1075.072265625 1079.1201171875 1081.018798828125 1084.6329345703125 1093.115478515625 1095.7027587890625 1094.8759765625 1092.2227783203125 1092.32373046875 1094.4761962890625 1095.03271484375 1101.9080810546875 1104.5838623046875 1103.067138671875 1100.96044921875 1094.7904052734375 1093.65673828125 1096.111328125 1098.0325927734375 1101.3724365234375 1100.4439697265625 1101.88916015625 1100.1298828125 1096.5189208984375 1092.730712890625 1091.20751953125 1087.9671630859375 1085.5521240234375 1083.2388916015625 1082.0562744140625 1081.1136474609375 1084.460205078125 1087.7034912109375 1091.1585693359375 1098.618896484375 1101.928466796875 1096.23974609375 1075.930419921875 1070.5225830078125 1071.477783203125 1082.117919921875
-9999 -9999 -9999 -9999 -9999 -9999 1066.33837890625 1066.1353759765625 1066.031494140625 1065.855224609375 1065.746337890625 1065.3414306640625 1065.4364013671875 1065.4322509765625 1065.19091796875 1064.953857421875 1064.8416748046875 1064.6419677734375 1065.1318359375 1065.488525390625 1065.111572265625 1065.114501953125 1065.1058349609375 1065.0797119140625 1064.8538818359375 1064.691162109375 1064.2620849609375 1064.406982421875 1064.44677734375 1064.375 1063.9208984375 1063.585693359375 1063.714599609375 1064.8504638671875 1065.2022705078125 1069.244140625 1073.7913818359375 1076.2872314453125 1078.1256103515625 1077.8294677734375 1076.1788330078125 1072.651611328125 1073.021240234375 1073.9454345703125 1076.7135009765625 1079.3985595703125 1080.1595458984375 1083.6324462890625 1088.8516845703125 1092.0694580078125 1095.012939453125 1104.578857421875 1106.590576171875 1106.1873779296875 1103.353515625 1105.444091796875 1109.92138671875 1112.6947021484375 1114.5013427734375 1115.1748046875 1113.35205078125 1110.350830078125 1100.6116943359375 1098.89208984375 1102.4337158203125 1104.7694091796875 1107.4273681640625 1107.3026123046875 1107.5648193359375 1105.7652587890625 1102.3973388671875 1098.4322509765625 1096.0599365234375 1093.688232421875 1089.4664306640625 1088.244873046875 1090.559814453125 1091.9097900390625 1096.990478515625 1099.828857421875 1106.0997314453125 1110.998779296875 1117.341796875 1118.0330810546875 1092.16162109375 1070.2364501953125 1071.49169921875 1073.6484375
-9999 -9999 -9999 -9999 -9999 -9999 1066.40625 1066.2593994140625 1066.1070556640625 1066.03076171875 1065.9345703125 1065.6920166015625 1065.9520263671875 1065.925537109375 1065.5107421875 1065.246826171875 1064.99072265625 1065.2818603515625 1065.72509765625 1065.6588134765625 1065.5623779296875 1065.4417724609375 1065.2591552734375 1064.8614501953125 1063.860595703125 1064.8109130859375 1064.7191162109375 1064.4677734375 1064.43505859375 1064.541259765625 1064.477783203125 1064.2418212890625 1065.2216796875 1065.9991455078125 1069.588134765625 1074.637939453125 1079.84814453125 1083.3349609375 1085.1029052734375 1085.5325927734375 1083.2530517578125 1082.041259765625 1083.375244140625 1084.19384765625 1087.143310546875 1089.9090576171875 1091.94580078125 1096.177734375 1099.7943115234375 1104.4464111328125 1110.64453125 1115.0823974609375 1117.9600830078125 1117.7230224609375 1117.4324951171875 1119.921142578125 1123.197021484375 1124.3865966796875 1125.19580078125 1123.6087646484375 1121.74072265625 1113.1455078125 1109.8448486328125 1107.961669921875 1108.7220458984375 1111.6357421875 1115.0391845703125 1116.4320068359375 1115.74951171875 1112.897216796875 1109.41796875 1106.4122314453125 1101.455078125 1097.5777587890625 1099.4410400390625 1103.2666015625 1105.5335693359375 1106.2547607421875 1110.970947265625 1114.8294677734375 1119.4898681640625 1125.88037109375 1129.47900390625 1129.34375 1106.617431640625 1088.1146240234375 1071.1458740234375 -9999
-9999 -9999 -9999 -9999 -9999 -9999 1066.5028076171875 1066.4722900390625 1066.3115234375 1066.20654296875 1066.0521240234375 1066.126708984375 1066.23583984375 1066.55810546875 1065.9095458984375 1065.511962890625 1065.7142333984375 1066.0047607421875 1065.72314453125 1065.9150390625 1066.0003662109375 1065.701171875 1065.3157958984375 1064.947998046875 1065.01611328125 1065.00048828125 1064.74609375 1064.8076171875 1064.80029296875 1064.6458740234375 1064.1170654296875 1068.8282470703125 1072.6141357421875 1071.681396484375 1076.0701904296875 1082.0006103515625 1087.635986328125 1091.535400390625 1092.6114501953125 1094.6171875 1091.689697265625 1092.2962646484375 1094.8660888671875 1096.779296875 1098.326171875 1100.375 1104.64208984375 1108.86572265625 1113.2608642578125 1111.443603515625 1122.142578125 1124.8924560546875 1128.785400390625 1129.9979248046875 1131.129150390625 1134.201904296875 1135.59423828125 1132.4996337890625 1131.587158203125 1132.6407470703125 1126.15087890625 1122.29296875 1121.9569091796875 1120.9576416015625 1117.6920166015625 1119.138916015625 1121.0184326171875 1122.1597900390625 1122.0382080078125 1119.8211669921875 1115.332763671875 1111.6236572265625 1109.0750732421875 1110.505126953125 1112.7972412109375 1116.40185546875 1119.8126220703125 1120.43896484375 1124.594970703125 1128.2025146484375 1132.7802734375 1134.543701171875 1136.2484130859375 1135.1380615234375 1141.6622314453125 1129.5240478515625 1081.8857421875 -9999
-9999 -9999 -9999 -9999 -9999 -9999 1066.567626953125 1066.4974365234375 1066.5091552734375 1066.4459228515625 1066.2659912109375 1066.3465576171875 1066.6380615234375 1067.3583984375 1066.397216796875 1066.5897216796875 1066.3282470703125 1066.8424072265625 1066.241455078125 1066.128173828125 1066.163818359375 1065.8140869140625 1065.9375 1065.7513427734375 1065.1513671875 1065.077392578125 1064.923828125 1064.683349609375 1065.451904296875 1067.0372314453125 1071.4639892578125 1077.6690673828125 1083.2730712890625 1081.6492919921875 1083.496826171875 1088.1142578125 1094.1536865234375 1099.880126953125 1100.15966796875 1103.6182861328125 1102.154052734375 1105.03125 1106.7420654296875 1108.5394287109375 1113.00732421875 1113.424072265625 1116.748779296875 1122.3443603515625 1126.1871337890625 1131.479248046875 1135.0997314453125 1137.2646484375 1139.627197265625 1141.8316650390625 1144.58935546875 1146.685791015625 1144.923583984375 1144.4874267578125 1138.8568115234375 1138.220703125 1134.4468994140625 1132.771240234375 1131.9617919921875 1127.661376953125 1129.3497314453125 1129.4644775390625 1128.7393798828125 1130.01416015625 1128.9329833984375 1126.9981689453125 1120.640625 1120.267822265625 1121.2640380859375 1122.5478515625 1125.73046875 1129.309326171875 1131.9622802734375 1131.3953857421875 1137.00390625 1139.525390625 1139.1798095703125 1142.645751953125 1141.3341064453125 1145.2490234375 1148.8809814453125 1146.141845703125 1093.16162109375 -9999
-9999 -9999 -9999 -9999 -9999 1067.9351806640625 1066.993896484375 1067.472900390625 1067.328125 1067.6007080078125 1067.605712890625 1067.5806884765625 1067.669921875 1068.6396484375 1067.4730224609375 1067.12841796875 1066.810302734375 1066.448486328125 1066.3751220703125 1066.2996826171875 1066.2281494140625 1066.0294189453125 1066.067626953125 1065.8680419921875 1065.7840576171875 1065.5745849609375 1067.0616455078125 1073.156982421875 1077.9591064453125 1078.207275390625 1083.193115234375 1090.94921875 1094.1416015625 1094.9051513671875 1097.2423095703125 1100.903564453125 1102.749267578125 1106.9786376953125 1111.8292236328125 1113.7403564453125 1114.7940673828125 1119.123046875 1122.932861328125 1124.921142578125 1129.2117919921875 1130.8759765625 1132.2213134765625 1137.21923828125 1140.08935546875 1144.757080078125 1144.9720458984375 1149.060546875 1151.2894287109375 1154.0032958984375 1155.4761962890625 1158.1259765625 1153.2235107421875 1151.2955322265625 1148.0576171875 1145.0811767578125 1141.0386962890625 1144.651611328125 1142.3961181640625 1139.212890625 1142.44287109375 1141.26806640625 1140.302734375 1136.6517333984375 1136.114501953125 1132.92431640625 1131.185791015625 1129.0601806640625 1129.5599365234375 1131.7991943359375 1136.8056640625 1142.2459716796875 1143.964599609375 1145.7138671875 1147.753662109375 1149.290771484375 1150.160888671875 1152.22412109375 1155.4508056640625 1156.0235595703125 1156.49560546875 1157.5008544921875 -9999 -9999
-9999 -9999 -9999 -9999 -9999 1068.4862060546875 1069.0797119140625 1069.52294921875 1069.796875 1069.730224609375 1069.75927734375 1070.8375244140625 1069.7225341796875 1070.2889404296875 1069.621826171875 1068.013916015625 1067.1768798828125 1066.797607421875 1066.5743408203125 1066.8394775390625 1066.5428466796875 1066.7047119140625 1066.62841796875 1067.4354248046875 1070.171875 1074.3607177734375 1079.7552490234375 1087.5606689453125 1093.529052734375 1094.161865234375 1095.8336181640625 1103.0745849609375 1106.6180419921875 1109.2769775390625 1111.8116455078125 1115.3724365234375 1117.3314208984375 1115.6300048828125 1120.7890625 1121.381591796875 1126.973388671875 1133.0048828125 1135.86669921875 1139.6473388671875 1144.2159423828125 1143.939453125 1146.47998046875 1150.96435546875 1153.6038818359375 1158.1016845703125 1156.5233154296875 1161.9150390625 1162.4827880859375 1165.3590087890625 1165.597900390625 1163.640625 1162.8331298828125 1156.608642578125 1159.633056640625 1152.686767578125 1148.382080078125 1154.747802734375 1153.7584228515625 1149.0985107421875 1154.0301513671875 1153.8516845703125 1147.808837890625 1145.0111083984375 1142.0665283203125 1141.0740966796875 1137.4622802734375 1135.689453125 1136.719970703125 1140.1064453125 1143.3988037109375 1150.2935791015625 1153.2291259765625 1154.4942626953125 1155.4927978515625 1154.7012939453125 1156.7562255859375 1159.586669921875 1162.690673828125 1163.2447509765625 1163.20361328125 1162.3619384765625 -9999 -9999
-9999 -9999 -9999 -9999 -9999 1070.93359375 1071.484130859375 1071.43994140625 1071.5079345703125 1071.7442626953125 1072.2010498046875 1073.31689453125 1073.5885009765625 1070.7747802734375 1071.663330078125 1069.8070068359375 1068.981689453125 1068.1961669921875 1067.52978515625 1067.3316650390625 1067.0870361328125 1072.1312255859375 1072.7469482421875 1076.19580078125 1085.0426025390625 1090.953369140625 1096.2384033203125 1102.3389892578125 1109.369873046875 1110.263427734375 1113.4691162109375 1118.2552490234375 1120.1025390625 1124.4075927734375 1127.526611328125 1131.2269287109375 1134.264404296875 1132.52392578125 1131.3974609375 1130.1737060546875 1141.527587890625 1149.7083740234375 1155.5684814453125 1155.67822265625 1164.756591796875 1158.9139404296875 1162.7027587890625 1166.446044921875 1170.87939453125 1172.711669921875 1174.15625 1175.4075927734375 1177.725341796875 1176.285400390625 1177.7742919921875 1170.8748779296875 1170.55126953125 1165.7672119140625 1166.99755859375 1160.03125 1156.3779296875 1159.0887451171875 1161.2850341796875 1158.7374267578125 1164.6998291015625 1165.9970703125 1154.4266357421875 1152.9544677734375 1149.6689453125 1145.6240234375 1145.803466796875 1145.85888671875 1145.8731689453125 1148.7784423828125 1152.023681640625 1155.706787109375 1158.5849609375 1159.904541015625 1160.5277099609375 1160.039306640625 1161.6287841796875 1163.7432861328125 1162.3135986328125 1163.319091796875 1161.7283935546875 1160.2113037109375 -9999 -9999
-9999 -9999 -9999 -9999 -9999 1073.21533203125 1074.0302734375 1074.176513671875 1073.65283203125 1073.746826171875 1074.4288330078125 1074.8626708984375 1074.8670654296875 1072.253173828125 1073.590576171875 1072.292724609375 1071.6304931640625 1071.685546875 1070.0367431640625 1067.3238525390625 1070.169677734375 1079.053466796875 1085.8828125 1091.017822265625 1100.0548095703125 1107.8841552734375 1116.9990234375 1147.197265625 1125.7171630859375 1130.5638427734375 1131.5968017578125 1133.4765625 1133.5361328125 1138.742431640625 1145.579833984375 1149.2425537109375 1152.788818359375 1163.917724609375 1169.812255859375 1143.3680419921875 1151.1754150390625 1177.706787109375 1185.853759765625 1180.2784423828125 1178.4141845703125 1177.2216796875 1179.9957275390625 1183.9002685546875 1191.145263671875 1189.5098876953125 1190.7864990234375 1188.35205078125 1189.4622802734375 1189.4906005859375 1188.094482421875 1180.53125 1178.225830078125 1176.7786865234375 1174.7889404296875 1170.1541748046875 1167.5174560546875 1166.5357666015625 1168.848876953125 1169.932861328125 1174.2193603515625 1168.1785888671875 1162.8084716796875 1159.267822265625 1156.8822021484375 1156.1746826171875 1155.699951171875 1155.4393310546875 1156.0030517578125 1157.4344482421875 1159.9222412109375 1162.6549072265625 1162.717041015625 1164.01171875 1166.100830078125 1168.2139892578125 1166.3365478515625 1164.7906494140625 1163.7093505859375 1161.3944091796875 1159.0521240234375 -9999 -9999 -9999
-9999 -9999 -9999 -9999 -9999 1076.311767578125 1076.789306640625 1077.7359619140625 1076.8851318359375 1077.9066162109375 1077.660888671875 1077.804931640625 1077.455810546875 1072.21630859375 1076.6845703125 1076.2406005859375 1076.5579833984375 1076.689208984375 1073.79931640625 1074.0001220703125 1081.4246826171875 1088.9130859375 1093.4542236328125 1107.765869140625 1119.1282958984375 1128.978759765625 1144.9256591796875 1167.376953125 1143.6190185546875 1154.4427490234375 1158.1844482421875 1156.53662109375 1153.700927734375 1161.2838134765625 1162.5277099609375 1178.4871826171875 1173.541748046875 1188.14208984375 1187.1676025390625 1174.63134765625 1156.1353759765625 1198.33837890625 1198.9744873046875 1194.6185302734375 1194.6875 1196.2957763671875 1204.870849609375 1208.68115234375 1209.7825927734375 1207.5654296875 1200.676025390625 1200.5772705078125 1200.5888671875 1202.554931640625 1198.1761474609375 1191.49755859375 1187.8260498046875 1188.3052978515625 1184.1005859375 1181.783447265625 1179.62158203125 1177.0504150390625 1178.487548828125 1180.752685546875 1183.3170166015625 1171.77734375 1171.0181884765625 1166.072998046875 1166.3841552734375 1166.1956787109375 1166.2142333984375 1165.9083251953125 1165.7349853515625 1166.48486328125 1166.400390625 1169.0654296875 1169.278564453125 1171.9874267578125 1171.0045166015625 1171.178955078125 1167.24365234375 1167.1588134765625 1163.486572265625 1160.4119873046875 1149.3421630859375 -9999 -9999 -9999
-9999 -9999 -9999 -9999 1078.78564453125 1079.811767578125 1080.4957275390625 1081.51025390625 1080.81884765625 1080.9339599609375 1080.7308349609375 1080.4366455078125 1079.7327880859375 1076.0526123046875 1081.80908203125 1082.6007080078125 1082.6812744140625 1082.0426025390625 1082.410400390625 1085.779296875 1092.6104736328125 1100.4654541015625 1110.3599853515625 1123.309326171875 1139.134521484375 1153.5933837890625 1165.5858154296875 1173.9173583984375 1182.0626220703125 1186.7913818359375 1181.17138671875 1186.5986328125 1187.892822265625 1174.4063720703125 1197.4718017578125 1204.1607666015625 1204.480224609375 1204.2835693359375 1204.70361328125 1201.6492919921875 1188.3690185546875 1185.8843994140625 1207.8919677734375 1209.093017578125 1211.8109130859375 1211.2120361328125 1220.1700439453125 1222.9705810546875 1223.132568359375 1220.1885986328125 1210.95166015625 1213.014892578125 1211.1036376953125 1214.568603515625 1207.25927734375 1203.53564453125 1199.2259521484375 1198.7415771484375 1195.5513916015625 1192.9229736328125 1190.3712158203125 1187.3585205078125 1189.0948486328125 1194.2869873046875 1189.7982177734375 1180.1719970703125 1176.9241943359375 1173.9163818359375 1173.7364501953125 1173.7618408203125 1174.17236328125 1173.294189453125 1175.5830078125 1173.7288818359375 1173.3463134765625 1172.3316650390625 1175.46728515625 1178.2615966796875 1176.7845458984375 1170.12109375 1167.768798828125 1167.0771484375 1164.1661376953125 1154.2806396484375 1141.4654541015625 -9999 -9999 -9999
-9999 -9999 -9999 -9999 1082.18505859375 1083.096435546875 1084.4168701171875 1085.231201171875 1084.0736083984375 1084.607421875 1084.488037109375 1083.352783203125 1082.622314453125 1079.5364990234375 1086.3480224609375 1088.552001953125 1088.7669677734375 1089.7891845703125 1092.2919921875 1096.56982421875 1103.58349609375 1112.171875 1123.3509521484375 1131.4345703125 1145.1533203125 1162.058837890625 1174.155517578125 1181.8514404296875 1189.9461669921875 1195.6890869140625 1199.2984619140625 1198.9075927734375 1201.16064453125 1192.289794921875 1202.8841552734375 1214.19873046875 1214.5625 1216.4320068359375 1215.185791015625 1213.2930908203125 1210.6678466796875 1202.680419921875 1200.643310546875 1222.255615234375 1222.6776123046875 1227.069091796875 1231.4891357421875 1233.9993896484375 1234.375244140625 1228.578125 1224.2520751953125 1225.2857666015625 1224.2591552734375 1223.8271484375 1216.3922119140625 1214.39794921875 1210.6829833984375 1210.276611328125 1207.1229248046875 1204.6488037109375 1202.236572265625 1197.88623046875 1203.672119140625 1201.147705078125 1190.0523681640625 1187.5289306640625 1184.8094482421875 1182.5401611328125 1181.1038818359375 1181.6925048828125 1180.238037109375 1178.0711669921875 1179.8460693359375 1179.140625 1176.782958984375 1178.266357421875 1182.7469482421875 1180.741943359375 1179.475341796875 1172.1412353515625 1168.9698486328125 1169.196533203125 1163.7421875 1151.9398193359375 -9999 -9999 -9999 -9999
-9999 -9999 -9999 -9999 1085.9619140625 1086.9775390625 1088.2786865234375 1089.3270263671875 1088.2740478515625 1088.385498046875 1088.153076171875 1087.0208740234375 1084.1763916015625 1086.0953369140625 1090.62255859375 1095.3770751953125 1095.88916015625 1096.9559326171875 1101.876708984375 1107.27197265625 1114.8985595703125 1125.1650390625 1136.9873046875 1153.86767578125 1164.7603759765625 1166.9315185546875 1179.2071533203125 1191.0013427734375 1199.0018310546875 1203.6761474609375 1208.45654296875 1211.1395263671875 1212.689697265625 1213.7083740234375 1215.4581298828125 1223.9405517578125 1227.0509033203125 1226.5198974609375 1227.4923095703125 1224.2177734375 1223.4627685546875 1222.6239013671875 1217.645751953125 1214.06787109375 1236.1376953125 1238.9412841796875 1242.77880859375 1245.8431396484375 1245.1427001953125 1238.3817138671875 1237.8817138671875 1237.7666015625 1236.9090576171875 1235.23388671875 1230.705078125 1228.1123046875 1226.9716796875 1223.388671875 1220.549560546875 1218.0164794921875 1213.91259765625 1210.17041015625 1212.0538330078125 1203.10498046875 1199.0821533203125 1196.93359375 1193.066162109375 1189.630615234375 1189.0587158203125 1188.305908203125 1186.8568115234375 1184.4281005859375 1183.202880859375 1181.463623046875 1179.7498779296875 1184.009765625 1188.094482421875 1184.27197265625 1177.84814453125 1171.388427734375 1171.597412109375 1169.5679931640625 1164.189208984375 1157.211669921875 -9999 -9999 -9999 -9999
-9999 -9999 -9999 -9999 1089.2230224609375 1090.9622802734375 1092.7593994140625 1093.7213134765625 1093.35595703125 1092.6488037109375 1092.4326171875 1090.337158203125 1087.834228515625 1086.91259765625 1092.4490966796875 1100.4688720703125 1103.031982421875 1105.7835693359375 1112.9180908203125 1118.2076416015625 1126.1160888671875 1138.377197265625 1152.5296630859375 1165.7337646484375 1177.07373046875 1186.8221435546875 1195.09765625 1201.5189208984375 1208.0509033203125 1214.1038818359375 1217.927490234375 1221.171630859375 1225.1109619140625 1228.0406494140625 1228.2283935546875 1234.8612060546875 1237.400634765625 1238.2310791015625 1238.9339599609375 1236.9892578125 1235.658203125 1236.315673828125 1240.494140625 1239.1666259765625 1247.235595703125 1251.536376953125 1253.5760498046875 1256.74462890625 1256.1611328125 1254.455810546875 1254.448974609375 1254.4578857421875 1253.81982421875 1252.2418212890625 1249.607666015625 1246.0286865234375 1240.75537109375 1236.3447265625 1233.75341796875 1229.9686279296875 1225.1114501953125 1224.0535888671875 1216.2899169921875 1209.4158935546875 1208.930908203125 1204.507080078125 1201.1053466796875 1197.559814453125 1195.8707275390625 1194.802490234375 1193.623291015625 1192.1590576171875 1187.6048583984375 1185.636474609375 1182.3612060546875 1185.9962158203125 1187.8756103515625 1184.662109375 1177.5313720703125 1173.1357421875 1173.954833984375 1168.8472900390625 1163.77099609375 1158.779296875 -9999 -9999 -9999 -9999
-9999 -9999 -9999 1088.46337890625 1091.9871826171875 1095.1505126953125 1098.0482177734375 1098.257080078125 1098.450927734375 1097.9180908203125 1097.143310546875 1093.4578857421875 1090.519287109375 1095.0506591796875 1100.70361328125 1107.5078125 1109.71044921875 1115.310546875 1120.94580078125 1128.77880859375 1138.1380615234375 1149.2237548828125 1165.0030517578125 1177.414794921875 1190.033447265625 1197.5206298828125 1205.1756591796875 1213.038330078125 1218.755615234375 1224.2850341796875 1228.507080078125 1232.3858642578125 1236.5118408203125 1241.7125244140625 1242.2926025390625 1246.97802734375 1249.4393310546875 1250.7344970703125 1251.6627197265625 1250.7667236328125 1248.1285400390625 1246.0526123046875 1250.69580078125 1251.3714599609375 1258.5892333984375 1264.064697265625 1266.206787109375 1268.4111328125 1269.5780029296875 1270.593505859375 1271.0345458984375 1276.7252197265625 1278.2044677734375 1275.90380859375 1270.8712158203125 1262.3668212890625 1256.5128173828125 1251.6397705078125 1248.2142333984375 1241.8870849609375 1237.2501220703125 1232.178466796875 1225.453125 1220.452392578125 1217.458740234375 1212.0142822265625 1208.0220947265625 1205.4124755859375 1202.3765869140625 1200.033203125 1198.255859375 1194.5087890625 1190.0858154296875 1187.90576171875 1184.8883056640625 1183.6314697265625 1184.313720703125 1181.6986083984375 1178.5172119140625 1176.6396484375 1172.0706787109375 1168.991455078125 1166.222900390625 -9999 -9999 -9999 -9999 -9999
-9999 -9999 -9999 1091.0433349609375 1094.6636962890625 1098.87744140625 1102.60546875 1103.1754150390625 1102.9217529296875 1103.51220703125 1098.9248046875 1095.9300537109375 1098.0565185546875 1103.6500244140625 1109.790283203125 1115.209228515625 1119.1771240234375 1125.2598876953125 1132.64111328125 1136.8311767578125 1147.4471435546875 1161.2899169921875 1176.3990478515625 1188.6068115234375 1199.0333251953125 1208.3328857421875 1215.4249267578125 1223.868896484375 1230.893798828125 1235.8731689453125 1240.53466796875 1244.5699462890625 1247.9283447265625 1254.4522705078125 1257.466064453125 1260.849365234375 1262.0740966796875 1264.418212890625 1265.1123046875 1264.5362548828125 1261.4552001953125 1259.4315185546875 1266.0045166015625 1262.47265625 1272.580322265625 1277.9415283203125 1285.061767578125 1286.9605712890625 1287.1849365234375 1287.78662109375 1303.5260009765625 1295.9705810546875 1291.80810546875 1287.314697265625 1284.7923583984375 1277.75 1271.7786865234375 1266.017333984375 1259.8603515625 1256.1455078125 1249.1519775390625 1243.6331787109375 1235.41943359375 1230.293701171875 1226.0504150390625 1220.918212890625 1216.6414794921875 1211.4952392578125 1208.8795166015625 1204.8814697265625 1204.79541015625 1199.198974609375 1193.7977294921875 1189.851806640625 1187.184814453125 1184.584228515625 1181.8642578125 1180.3973388671875 1179.0552978515625 1177.52734375 1173.0382080078125 1170.4952392578125 1166.6475830078125 -9999 -9999 -9999 -9999 -9999
-9999 -9999 -9999 1093.8553466796875 1097.3529052734375 1101.1717529296875 1106.954833984375 1108.3798828125 1108.6453857421875 1106.7791748046875 1105.6141357421875 1104.2529296875 1110.719482421875 1113.9483642578125 1120.9344482421875 1124.3939208984375 1131.2509765625 1128.158203125 1136.6446533203125 1146.8486328125 1158.31103515625 1170.9085693359375 1188.4224853515625 1200.28271484375 1212.680419921875 1223.06396484375 1238.074462890625 1239.8740234375 1239.9168701171875 1247.7694091796875 1251.6187744140625 1257.2244873046875 1261.8304443359375 1267.779541015625 1273.4288330078125 1275.5096435546875 1275.515380859375 1277.8984375 1279.781494140625 1280.1085205078125 1275.8907470703125 1282.439208984375 1294.4124755859375 1289.9818115234375 1291.425537109375 1296.70556640625 1301.6246337890625 1306.5955810546875 1305.0775146484375 1310.6197509765625 1316.462646484375 1309.3907470703125 1306.93994140625 1306.5938720703125 1298.802978515625 1291.22216796875 1280.8482666015625 1277.4471435546875 1272.0413818359375 1267.3612060546875 1261.3897705078125 1253.728515625 1244.8084716796875 1239.13134765625 1232.2188720703125 1230.3238525390625 1224.5445556640625 1219.50439453125 1216.925048828125 1216.9476318359375 1212.2381591796875 1203.630859375 1197.9981689453125 1193.5087890625 1190.1776123046875 1188.6968994140625 1187.8702392578125 1187.4674072265625 1184.7164306640625 1180.8680419921875 1176.643798828125 1173.999267578125 1168.5760498046875 -9999 -9999 -9999 -9999 -9999
-9999 -9999 -9999 1097.119384765625 1099.78955078125 1104.3504638671875 1109.24609375 1112.7882080078125 1113.512939453125 1111.9031982421875 1113.4505615234375 1114.64892578125 1121.82958984375 1128.1766357421875 1135.0260009765625 1136.7054443359375 1142.52392578125 1134.7691650390625 1148.1453857421875 1151.206298828125 1172.4951171875 1183.825439453125 1194.72900390625 1211.2391357421875 1224.267333984375 1237.24609375 1246.715576171875 1252.5020751953125 1252.5181884765625 1257.9676513671875 1263.996337890625 1270.764404296875 1278.746337890625 1289.51513671875 1289.47314453125 1291.678955078125 1291.6298828125 1292.7569580078125 1293.1790771484375 1297.1605224609375 1321.08740234375 1299.463623046875 1312.4967041015625 1306.0743408203125 1312.3475341796875 1315.2474365234375 1321.31982421875 1323.38671875 1322.180908203125 1324.9716796875 1327.2816162109375 1322.61083984375 1320.033447265625 1319.0340576171875 1308.91259765625 1299.442138671875 1292.8958740234375 1287.2462158203125 1281.7841796875 1277.4830322265625 1269.3350830078125 1261.818115234375 1253.13720703125 1247.54833984375 1242.9249267578125 1239.139404296875 1234.8204345703125 1231.2626953125 1233.9696044921875 1234.7357177734375 1228.357177734375 1217.0640869140625 1205.085205078125 1201.1357421875 1199.2379150390625 1198.8289794921875 1198.2882080078125 1197.165283203125 1192.60693359375 1186.3282470703125 1181.459228515625 1177.5491943359375 -9999 -9999 -9999 -9999 -9999 -9999
-9999 -9999 1099.8197021484375 1102.86328125 1103.8936767578125 1106.2437744140625 1111.2021484375 1116.69384765625 1120.4849853515625 1117.4000244140625 1122.5126953125 1124.955322265625 1133.475830078125 1139.3675537109375 1144.66064453125 1153.0531005859375 1161.2620849609375 1147.40234375 1160.78564453125 1165.7623291015625 1170.8466796875 1183.9356689453125 1200.3427734375 1218.3116455078125 1228.50634765625 1241.9945068359375 1253.8212890625 1263.234375 1266.7144775390625 1271.1488037109375 1276.8055419921875 1283.35986328125 1292.30517578125 1299.337646484375 1304.9637451171875 1308.5184326171875 1320.382568359375 1334.64404296875 1345.128173828125 1340.17041015625 1340.8321533203125 1331.37548828125 1318.984375 1324.9964599609375 1329.453369140625 1332.10107421875 1333.9971923828125 1335.531494140625 1335.6806640625 1336.6993408203125 1336.7198486328125 1334.3515625 1330.7723388671875 1325.067626953125 1315.9473876953125 1307.702880859375 1301.728759765625 1296.69921875 1292.20068359375 1283.8140869140625 1277.3682861328125 1269.6517333984375 1261.9921875 1253.46875 1251.3638916015625 1247.8470458984375 1246.092529296875 1247.018310546875 1249.041259765625 1247.92724609375 1242.993896484375 1232.3890380859375 1223.181884765625 1216.512451171875 1211.256103515625 1209.9154052734375 1206.082275390625 1200.583984375 1194.877197265625 1190.6014404296875 1184.5880126953125 1180.2987060546875 -9999 -9999 -9999 -9999 -9999 -9999
-9999 -9999 1106.4654541015625 1108.913330078125 1109.3375244140625 1107.39990234375 1112.3699951171875 1119.1607666015625 1125.3707275390625 1124.583984375 1132.9017333984375 1135.93310546875 1144.6356201171875 1151.740478515625 1159.7425537109375 1165.4061279296875 1173.5784912109375 1163.0556640625 1167.0966796875 1176.4931640625 1191.322998046875 1197.270751953125 1213.100341796875 1220.8856201171875 1238.1627197265625 1250.6612548828125 1263.0162353515625 1274.615966796875 1280.1298828125 1284.475341796875 1290.4163818359375 1296.1104736328125 1303.1558837890625 1315.390869140625 1320.5985107421875 1325.8072509765625 1344.78662109375 1360.234375 1356.9384765625 1358.442138671875 1352.34326171875 1345.310791015625 1336.609130859375 1336.8343505859375 1343.3995361328125 1345.94970703125 1347.7193603515625 1349.3995361328125 1349.8626708984375 1348.9598388671875 1348.6558837890625 1345.968994140625 1340.8319091796875 1334.658447265625 1325.6531982421875 1318.2080078125 1313.2628173828125 1307.9912109375 1301.4239501953125 1293.936767578125 1286.565673828125 1279.0335693359375 1271.3865966796875 1265.2423095703125 1260.1695556640625 1260.213623046875 1259.7044677734375 1257.4791259765625 1256.7838134765625 1255.2042236328125 1252.115478515625 1243.1588134765625 1234.4569091796875 1227.5186767578125 1222.2330322265625 1218.117919921875 1212.76416015625 1208.1766357421875 1195.719482421875 1190.265625 1184.3013916015625 1181.6240234375 -9999 -9999 -9999 -9999 -9999 -9999
-9999 -9999 1113.9647216796875 1116.6507568359375 1115.2265625 1118.4344482421875 1124.3809814453125 1129.4508056640625 1137.067626953125 1129.8486328125 1143.2706298828125 1149.480712890625 1158.80908203125 1169.90869140625 1175.4615478515625 1181.6922607421875 1188.43359375 1180.2325439453125 1183.814208984375 1195.38818359375 1209.0677490234375 1215.5003662109375 1228.0518798828125 1231.325927734375 1243.3499755859375 1258.6131591796875 1270.21240234375 1281.203857421875 1292.7236328125 1298.100830078125 1305.239013671875 1314.3690185546875 1322.580078125 1338.7308349609375 1338.826416015625 1356.2681884765625 1370.609619140625 1371.3233642578125 1367.4307861328125 1368.1270751953125 1362.6666259765625 1356.8035888671875 1353.6986083984375 1348.8851318359375 1356.3251953125 1361.9932861328125 1363.5867919921875 1367.866455078125 1364.84765625 1362.8304443359375 1361.31103515625 1358.58544921875 1354.016357421875 1345.6343994140625 1341.151123046875 1332.56689453125 1328.088134765625 1321.2987060546875 1313.1295166015625 1305.1414794921875 1297.34912109375 1289.7242431640625 1280.886962890625 1279.6627197265625 1277.9661865234375 1276.16943359375 1272.206298828125 1269.8231201171875 1266.39013671875 1262.385986328125 1258.352783203125 1249.3922119140625 1240.0352783203125 1233.27685546875 1227.5391845703125 1224.0775146484375 1219.087890625 1209.6900634765625 1201.83837890625 1194.5809326171875 1186.23583984375 -9999 -9999 -9999 -9999 -9999 -9999 -9999
-9999 -9999 1120.311279296875 1124.0302734375 1122.9326171875 1130.571533203125 1137.682861328125 1142.70703125 1150.2747802734375 1138.845703125 1158.8291015625 1167.4786376953125 1175.8507080078125 1181.5377197265625 1191.84619140625 1197.84375 1204.144287109375 1193.1241455078125 1200.5345458984375 1212.727783203125 1217.8197021484375 1229.4901123046875 1237.976806640625 1249.00927734375 1255.1695556640625 1269.1065673828125 1282.1500244140625 1293.602294921875 1304.845947265625 1311.9422607421875 1325.81884765625 1334.95068359375 1335.51953125 1351.77685546875 1363.4527587890625 1371.50830078125 1381.4530029296875 1384.1968994140625 1380.2252197265625 1379.0753173828125 1371.6893310546875 1367.6138916015625 1363.6142578125 1363.7578125 1368.724853515625 1374.2525634765625 1379.158203125 1383.1114501953125 1379.119140625 1380.7998046875 1380.3807373046875 1378.595703125 1368.3975830078125 1359.91162109375 1352.472412109375 1348.0322265625 1341.43017578125 1333.2322998046875 1324.867919921875 1315.763916015625 1307.864990234375 1299.0662841796875 1294.691650390625 1296.0582275390625 1294.9107666015625 1290.784423828125 1287.2567138671875 1287.0650634765625 1283.1221923828125 1277.663330078125 1268.988525390625 1259.6224365234375 1248.46826171875 1241.2841796875 1231.2021484375 1226.8441162109375 1222.18310546875 1215.5128173828125 1207.001953125 1198.93212890625 1190.4169921875 -9999 -9999 -9999 -9999 -9999 -9999 -9999
-9999 1126.3963623046875 1128.4705810546875 1131.8695068359375 1138.16455078125 1143.5908203125 1150.9642333984375 1157.54541015625 1152.1456298828125 1149.009765625 1161.75244140625 1177.5762939453125 1195.3038330078125 1205.7322998046875 1208.10107421875 1216.2427978515625 1220.876708984375 1208.459716796875 1218.4525146484375 1226.3468017578125 1227.09423828125 1239.2379150390625 1252.0587158203125 1261.94970703125 1273.9287109375 1270.5831298828125 1294.50439453125 1317.4197998046875 1323.6055908203125 1330.5321044921875 1339.6575927734375 1348.7237548828125 1354.0125732421875 1361.236572265625 1375.8048095703125 1391.6126708984375 1397.279296875 1398.908935546875 1398.9403076171875 1394.0457763671875 1383.73974609375 1380.3153076171875 1374.4615478515625 1377.2021484375 1382.985107421875 1386.288818359375 1392.3284912109375 1396.8447265625 1396.9443359375 1401.683349609375 1400.466796875 1393.5811767578125 1383.9039306640625 1373.7520751953125 1365.0848388671875 1360.0152587890625 1353.1328125 1345.9549560546875 1337.6573486328125 1327.1705322265625 1318.4044189453125 1306.86572265625 1309.94140625 1308.083984375 1310.613037109375 1306.4488525390625 1302.39453125 1299.45849609375 1294.0594482421875 1290.458740234375 1282.85546875 1271.6021728515625 1260.938720703125 1251.2060546875 1241.382568359375 1231.8216552734375 1224.8330078125 1218.79150390625 1208.37158203125 1199.2218017578125 1188.1278076171875 -9999 -9999 -9999 -9999 -9999 -9999 -9999
-9999 1138.3251953125 1140.42138671875 1139.59130859375 1151.5675048828125 1158.8292236328125 1168.847900390625 1171.4989013671875 1163.3782958984375 1154.4891357421875 1161.32763671875 1179.92529296875 1193.369140625 1216.45068359375 1229.1375732421875 1230.960693359375 1230.8350830078125 1231.751953125 1236.4036865234375 1241.480224609375 1245.0810546875 1241.7550048828125 1263.816650390625 1275.04833984375 1292.2001953125 1304.577880859375 1320.9027099609375 1331.7423095703125 1336.58203125 1344.1309814453125 1353.2642822265625 1361.0360107421875 1370.4066162109375 1393.580810546875 1391.220703125 1407.444091796875 1412.6075439453125 1411.5921630859375 1411.8466796875 1407.048828125 1399.3331298828125 1391.059814453125 1390.2598876953125 1387.8985595703125 1397.6510009765625 1402.20263671875 1406.37744140625 1412.1365966796875 1416.5206298828125 1417.692626953125 1413.357421875 1406.6060791015625 1397.2545166015625 1388.964599609375 1380.95068359375 1372.4891357421875 1365.6278076171875 1359.321533203125 1352.089599609375 1341.8697509765625 1326.115966796875 1322.59375 1318.711669921875 1319.045166015625 1320.9202880859375 1315.7835693359375 1308.4364013671875 1304.811767578125 1301.94921875 1297.0107421875 1291.999755859375 1282.767578125 1271.347412109375 1262.116455078125 1251.8328857421875 1240.692138671875 1232.1514892578125 1221.41259765625 1207.769287109375 1196.4239501953125 -9999 -9999 -9999 -9999 -9999 -9999 -9999 -9999
-9999 1148.2978515625 1154.1002197265625 1157.14501953125 1158.293212890625 1169.680908203125 1182.0972900390625 1187.6060791015625 1183.952880859375 1170.91259765625 1171.086181640625 1181.62451171875 1222.1737060546875 1222.5281982421875 1237.906005859375 1242.21484375 1245.6683349609375 1253.537353515625 1254.3260498046875 1254.8673095703125 1266.713623046875 1271.05615234375 1275.9949951171875 1292.6673583984375 1306.3336181640625 1318.9609375 1335.6029052734375 1344.5833740234375 1350.9869384765625 1358.359619140625 1374.81591796875 1397.2020263671875 1406.1744384765625 1407.873291015625 1413.8536376953125 1423.7835693359375 1426.9683837890625 1426.3333740234375 1425.4693603515625 1420.228759765625 1413.9552001953125 1409.6070556640625 1403.8507080078125 1404.226318359375 1417.301025390625 1419.6768798828125 1423.9146728515625 1428.5162353515625 1433.551513671875 1430.3692626953125 1425.01904296875 1416.848388671875 1407.5308837890625 1399.9442138671875 1392.87060546875 1384.4354248046875 1378.2501220703125 1365.6226806640625 1359.6551513671875 1350.130859375 1342.7767333984375 1338.936767578125 1332.973388671875 1330.4886474609375 1327.4307861328125 1319.642333984375 1313.0706787109375 1310.509033203125 1306.5125732421875 1302.7183837890625 1296.96630859375 1287.4630126953125 1278.4364013671875 1268.9837646484375 1259.966796875 1252.1484375 1237.607177734375 1222.51611328125 1212.671142578125 1206.6917724609375 -9999 -9999 -9999 -9999 -9999 -9999 -9999 -9999
-9999 1159.509765625 1168.80029296875 1172.0675048828125 1166.2967529296875 1185.3453369140625 1195.1954345703125 1203.8472900390625 1215.500244140625 1213.5775146484375 1181.5504150390625 1190.1612548828125 1204.7242431640625 1217.9246826171875 1244.9578857421875 1252.122314453125 1260.609130859375 1266.7808837890625 1268.3394775390625 1268.306640625 1279.1697998046875 1286.9176025390625 1290.85595703125 1308.5556640625 1322.439453125 1330.5308837890625 1347.134033203125 1355.402587890625 1367.968017578125 1384.925537109375 1398.9420166015625 1409.701416015625 1418.650390625 1423.51953125 1429.6575927734375 1444.655517578125 1447.3946533203125 1444.978759765625 1440.429931640625 1440.2490234375 1433.940185546875 1431.013427734375 1428.6168212890625 1421.3604736328125 1435.0283203125 1436.8170166015625 1440.749267578125 1446.02001953125 1447.4466552734375 1442.035888671875 1435.388916015625 1428.869384765625 1420.699951171875 1417.18310546875 1406.4986572265625 1393.593017578125 1381.453369140625 1381.1236572265625 1378.267822265625 1370.9306640625 1362.7686767578125 1358.7615966796875 1347.2755126953125 1340.0555419921875 1330.690673828125 1322.8292236328125 1317.90087890625 1315.1416015625 1311.811279296875 1307.1328125 1300.38671875 1292.668701171875 1283.4361572265625 1274.9381103515625 1265.765869140625 1257.2222900390625 1241.01220703125 1229.8133544921875 1224.07421875 1219.962646484375 -9999 -9999 -9999 -9999 -9999 -9999 -9999 -9999
1171.1898193359375 1176.890380859375 1183.90576171875 1189.2208251953125 1191.036865234375 1187.7896728515625 1207.654052734375 1218.1656494140625 1226.5548095703125 1208.6383056640625 1198.980224609375 1195.638916015625 1216.87255859375 1235.1064453125 1256.77685546875 1265.0426025390625 1276.127685546875 1283.4801025390625 1288.422119140625 1295.0606689453125 1301.7955322265625 1305.287841796875 1306.53466796875 1313.166748046875 1328.98388671875 1344.2086181640625 1357.8607177734375 1373.06396484375 1375.9837646484375 1392.7281494140625 1406.7630615234375 1418.5191650390625 1432.1060791015625 1446.374267578125 1451.4599609375 1466.7587890625 1468.61083984375 1463.8826904296875 1457.4505615234375 1455.07080078125 1449.90478515625 1448.088134765625 1442.1531982421875 1439.5916748046875 1451.029541015625 1452.1943359375 1458.32421875 1464.385986328125 1465.9075927734375 1459.4130859375 1450.0941162109375 1442.0244140625 1434.726806640625 1418.9443359375 1404.16943359375 1395.9405517578125 1394.4854736328125 1396.460693359375 1389.5228271484375 1379.4605712890625 1374.664794921875 1360.7542724609375 1354.56982421875 1347.7542724609375 1337.79931640625 1326.6966552734375 1321.322509765625 1321.55029296875 1318.4200439453125 1315.028564453125 1308.6998291015625 1299.59521484375 1288.1317138671875 1277.2296142578125 1267.4854736328125 1257.789306640625 1244.789306640625 1236.6414794921875 1234.6063232421875 1232.5042724609375 -9999 -9999 -9999 -9999 -9999 -9999 -9999 -9999
1183.9097900390625 1191.8961181640625 1197.91259765625 1207.133544921875 1213.520263671875 1212.5465087890625 1221.5587158203125 1228.989501953125 1237.6893310546875 1228.111328125 1239.8680419921875 1234.2735595703125 1255.776611328125 1270.5743408203125 1282.286865234375 1287.2864990234375 1293.035400390625 1300.018310546875 1308.361572265625 1308.0428466796875 1328.4937744140625 1330.23583984375 1341.3369140625 1334.9539794921875 1336.142822265625 1347.7989501953125 1369.79638671875 1384.74951171875 1395.296875 1395.9632568359375 1412.1588134765625 1432.88134765625 1455.1025390625 1476.5457763671875 1493.6219482421875 1484.5001220703125 1481.58740234375 1477.771484375 1473.6458740234375 1469.31982421875 1466.7772216796875 1463.7669677734375 1460.201416015625 1449.544189453125 1470.5789794921875 1470.920166015625 1485.412841796875 1490.333984375 1485.72607421875 1475.2056884765625 1465.35400390625 1451.8602294921875 1431.938720703125 1415.4774169921875 1408.03857421875 1403.219970703125 1403.8363037109375 1402.718017578125 1397.8017578125 1388.9720458984375 1378.0784912109375 1366.248779296875 1365.189697265625 1357.722900390625 1346.3203125 1336.842041015625 1331.115478515625 1328.077880859375 1323.7183837890625 1318.8314208984375 1312.322509765625 1302.6229248046875 1292.4239501953125 1280.586181640625 1270.91748046875 1260.6552734375 1251.976318359375 1248.0728759765625 1247.49462890625 -9999 -9999 -9999 -9999 -9999 -9999 -9999 -9999 -9999
1198.5384521484375 1209.0362548828125 1209.9000244140625 1220.14794921875 1227.2987060546875 1231.1248779296875 1241.4097900390625 1242.51123046875 1251.12255859375 1257.3936767578125 1261.3084716796875 1252.58203125 1276.84375 1290.983154296875 1304.1080322265625 1304.193603515625 1310.7958984375 1316.5335693359375 1325.0072021484375 1334.8179931640625 1345.685302734375 1358.2120361328125 1367.225830078125 1368.65234375 1372.370849609375 1363.6815185546875 1374.302490234375 1393.1451416015625 1410.8966064453125 1421.9337158203125 1419.9609375 1441.5740966796875 1464.8155517578125 1490.87060546875 1507.1357421875 1499.1204833984375 1496.53271484375 1490.3778076171875 1488.4132080078125 1483.44384765625 1485.7530517578125 1485.4100341796875 1478.049560546875 1464.1263427734375 1490.5340576171875 1492.9564208984375 1505.90087890625 1505.2662353515625 1496.94775390625 1486.342041015625 1471.9810791015625 1447.4293212890625 1428.1641845703125 1418.9434814453125 1414.7176513671875 1412.87255859375 1417.9608154296875 1413.5048828125 1406.0994873046875 1396.324951171875 1384.153076171875 1378.2135009765625 1373.034423828125 1367.471435546875 1356.636474609375 1348.1817626953125 1341.9686279296875 1337.1866455078125 1328.1224365234375 1322.8961181640625 1315.9447021484375 1305.4996337890625 1295.94140625 1284.8853759765625 1276.10595703125 1269.7418212890625 1265.4053955078125 1263.5592041015625 -9999 -9999 -9999 -9999 -9999 -9999 -9999 -9999 -9999 -9999
1215.3134765625 1224.9620361328125 1230.2100830078125 1233.9932861328125 1244.343994140625 1249.5054931640625 1255.7972412109375 1256.4464111328125 1262.3721923828125 1272.6033935546875 1277.2413330078125 1282.609375 1283.7183837890625 1300.818603515625 1314.32080078125 1320.3629150390625 1323.3753662109375 1331.779296875 1340.10888671875 1347.240234375 1363.3311767578125 1372.872802734375 1380.6114501953125 1387.8626708984375 1384.556884765625 1380.5413818359375 1389.7237548828125 1407.4576416015625 1431.3533935546875 1438.9072265625 1455.9207763671875 1460.1053466796875 1477.4981689453125 1509.043701171875 1515.8577880859375 1519.0721435546875 1512.430908203125 1506.854248046875 1503.6971435546875 1501.6734619140625 1503.36669921875 1505.624267578125 1486.3939208984375 1496.78125 1508.542724609375 1517.584228515625 1520.2833251953125 1517.2425537109375 1509.8743896484375 1491.98486328125 1470.045166015625 1444.2664794921875 1436.5633544921875 1429.1640625 1425.619140625 1421.7171630859375 1417.6907958984375 1414.9027099609375 1414.6556396484375 1412.0823974609375 1398.6060791015625 1384.8997802734375 1378.225341796875 1372.437744140625 1367.220703125 1359.2049560546875 1353.59765625 1347.055908203125 1340.798095703125 1332.5262451171875 1324.8258056640625 1314.5543212890625 1307.5137939453125 1296.583984375 1288.9525146484375 1283.689453125 1283.437744140625 1277.2047119140625 -9999 -9999 -9999 -9999 -9999 -9999 -9999 -9999 -9999 -9999
1231.189208984375 1235.291259765625 1242.7879638671875 1251.2860107421875 1258.646484375 1264.22216796875 1266.9058837890625 1268.51708984375 1277.895263671875 1285.2733154296875 1292.5992431640625 1300.629638671875 1286.43115234375 1295.28369140625 1308.4747314453125 1310.0908203125 1333.7857666015625 1344.3927001953125 1354.6126708984375 1366.3931884765625 1377.6563720703125 1386.7001953125 1397.0396728515625 1402.5078125 1402.2503662109375 1403.630126953125 1419.760986328125 1434.6737060546875 1448.5504150390625 1475.7568359375 1486.5924072265625 1487.6441650390625 1496.1224365234375 1513.1395263671875 1526.8223876953125 1533.231689453125 1531.40380859375 1528.8360595703125 1524.190673828125 1518.408203125 1523.1456298828125 1520.5946044921875 1521.799560546875 1514.5322265625 1525.5980224609375 1532.98486328125 1531.31103515625 1524.5299072265625 1508.0367431640625 1492.650634765625 1460.56884765625 1457.4010009765625 1448.62646484375 1440.082275390625 1434.0404052734375 1427.1031494140625 1424.7537841796875 1422.0999755859375 1414.813720703125 1422.64794921875 1404.807861328125 1389.3846435546875 1384.318359375 1380.195068359375 1373.428466796875 1368.2332763671875 1365.5509033203125 1360.7716064453125 1354.5621337890625 1345.3331298828125 1336.324462890625 1330.9052734375 1321.625 1312.0321044921875 1304.9276123046875 1301.548095703125 1296.32666015625 -9999 -9999 -9999 -9999 -9999 -9999 -9999 -9999 -9999 -9999 -9999
1245.5748291015625 1252.2021484375 1256.544921875 1265.0885009765625 1271.6875 1276.2818603515625 1280.4530029296875 1287.5941162109375 1292.4166259765625 1298.2037353515625 1305.373046875 1314.8800048828125 1321.4420166015625 1326.903564453125 1336.005859375 1330.8668212890625 1348.4329833984375 1354.7442626953125 1367.02001953125 1379.093994140625 1393.2325439453125 1401.9989013671875 1415.7041015625 1421.7818603515625 1421.220458984375 1426.54248046875 1425.1734619140625 1439.281005859375 1457.33837890625 1490.6387939453125 1505.1324462890625 1505.2904052734375 1500.7381591796875 1522.719482421875 1537.126708984375 1547.51123046875 1554.90771484375 1548.7042236328125 1543.7286376953125 1541.947998046875 1538.44287109375 1535.926513671875 1533.934814453125 1532.98388671875 1542.414794921875 1544.0631103515625 1541.5091552734375 1524.768798828125 1499.91455078125 1480.95556640625 1487.1932373046875 1494.7366943359375 1456.2344970703125 1451.6219482421875 1438.4766845703125 1431.7210693359375 1428.2017822265625 1424.814453125 1420.805908203125 1413.976806640625 1404.312744140625 1394.644775390625 1394.41748046875 1391.5098876953125 1385.2747802734375 1383.069580078125 1379.2357177734375 1374.87548828125 1386.771728515625 1376.05078125 1360.7681884765625 1346.86669921875 1341.22265625 1331.6529541015625 1322.293701171875 1314.8365478515625 -9999 -9999 -9999 -9999 -9999 -9999 -9999 -9999 -9999 -9999 -9999 -9999
-9999 1264.652099609375 1270.4703369140625 1275.468994140625 1287.037353515625 1292.267822265625 1293.1380615234375 1304.61279296875 1311.99658203125 1319.1710205078125 1323.625244140625 1329.0753173828125 1337.296875 1342.0948486328125 1349.3681640625 1354.7718505859375 1356.8009033203125 1370.2889404296875 1381.898681640625 1392.3927001953125 1407.7371826171875 1428.6966552734375 1436.7286376953125 1440.08154296875 1442.8388671875 1448.081787109375 1457.3355712890625 1453.6751708984375 1463.4686279296875 1486.7918701171875 1509.5198974609375 1520.0338134765625 1519.9769287109375 1527.6995849609375 1543.6973876953125 1562.4234619140625 1570.5653076171875 1565.6737060546875 1560.8446044921875 1557.0067138671875 1553.03515625 1553.126953125 1544.263671875 1543.5416259765625 1555.252197265625 1553.5067138671875 1547.9766845703125 1525.1962890625 1507.189697265625 1510.1129150390625 1528.152099609375 1527.1636962890625 1519.8408203125 1474.829345703125 1471.2818603515625 1444.4866943359375 1435.9425048828125 1432.19189453125 1423.9276123046875 1414.2364501953125 1410.715087890625 1408.5728759765625 1407.0623779296875 1402.92529296875 1398.89794921875 1397.1138916015625 1394.3365478515625 1414.824462890625 1419.43505859375 1400.7701416015625 1378.926513671875 1367.7808837890625 1359.480712890625 1347.4163818359375 1337.3427734375 1328.056396484375 -9999 -9999 -9999 -9999 -9999 -9999 -9999 -9999 -9999 -9999 -9999 -9999
-9999 1274.767822265625 1287.379150390625 1293.33984375 1301.3218994140625 1307.31787109375 1307.374755859375 1321.9002685546875 1327.873779296875 1333.539794921875 1342.92578125 1347.203125 1352.43359375 1356.3314208984375 1364.0423583984375 1371.111083984375 1374.0487060546875 1377.67578125 1398.694580078125 1412.6895751953125 1424.1533203125 1443.9888916015625 1459.518310546875 1459.8062744140625 1465.4619140625 1476.6966552734375 1483.2945556640625 1475.2373046875 1472.1439208984375 1492.431884765625 1511.753662109375 1529.825439453125 1536.369140625 1547.0814208984375 1567.21044921875 1576.078125 1580.71923828125 1577.630126953125 1574.197265625 1571.408447265625 1568.3160400390625 1566.6627197265625 1563.019775390625 1555.234130859375 1566.555419921875 1563.2464599609375 1556.5369873046875 1539.5101318359375 1515.81103515625 1533.690673828125 1542.2763671875 1542.1351318359375 1538.218505859375 1534.5384521484375 1528.5445556640625 1443.28564453125 1440.31005859375 1439.91162109375 1463.6976318359375 1452.7576904296875 1427.5843505859375 1433.906005859375 1422.619384765625 1416.96826171875 1416.8450927734375 1412.6776123046875 1413.6607666015625 1461.057373046875 1446.03369140625 1430.50537109375 1412.74658203125 1396.586181640625 1379.0760498046875 1364.5474853515625 1352.9024658203125 -9999 -9999 -9999 -9999 -9999 -9999 -9999 -9999 -9999 -9999 -9999 -9999 -9999
-9999 -9999 1302.0401611328125 1309.2021484375 1313.3985595703125 1322.915283203125 1328.224853515625 1328.9844970703125 1344.5098876953125 1353.85791015625 1358.263671875 1367.15380859375 1371.7725830078125 1375.513916015625 1382.2259521484375 1391.312744140625 1379.5660400390625 1383.07958984375 1402.785400390625 1416.9114990234375 1432.8125 1452.1571044921875 1471.739501953125 1479.3779296875 1489.74169921875 1496.586181640625 1495.3343505859375 1488.65869140625 1503.111083984375 1514.972900390625 1525.232177734375 1544.116455078125 1553.120361328125 1568.4766845703125 1578.830078125 1588.8507080078125 1591.8819580078125 1594.29150390625 1592.9869384765625 1588.03369140625 1584.4200439453125 1578.4937744140625 1580.440673828125 1571.3905029296875 1579.924560546875 1575.365966796875 1566.4058837890625 1540.7061767578125 1529.93701171875 1546.1475830078125 1558.9296875 1558.74658203125 1555.7095947265625 1553.089111328125 1550.4761962890625 1551.808349609375 1547.67529296875 1538.4420166015625 1538.5423583984375 1522.2554931640625 1496.56201171875 1470.3980712890625 1452.354248046875 1436.668701171875 1431.9285888671875 1430.62841796875 1448.00537109375 1478.575927734375 1460.069580078125 1445.3370361328125 1429.7789306640625 1414.658203125 1396.61376953125 1384.169921875 -9999 -9999 -9999 -9999 -9999 -9999 -9999 -9999 -9999 -9999 -9999 -9999 -9999 -9999
-9999 -9999 1315.2471923828125 1325.8631591796875 1332.4990234375 1343.4844970703125 1352.14794921875 1362.8543701171875 1354.6044921875 1374.7015380859375 1380.990478515625 1385.66064453125 1390.12890625 1394.053466796875 1400.021728515625 1405.74951171875 1381.8499755859375 1395.840087890625 1411.0889892578125 1429.746826171875 1448.5609130859375 1468.7919921875 1480.86328125 1493.27490234375 1504.10986328125 1511.7396240234375 1513.0064697265625 1513.837890625 1533.290771484375 1537.72705078125 1548.0369873046875 1562.711181640625 1580.4267578125 1586.356689453125 1596.6182861328125 1601.8719482421875 1608.019775390625 1616.614013671875 1609.8404541015625 1605.841552734375 1600.7274169921875 1594.8602294921875 1591.9317626953125 1590.8843994140625 1593.873291015625 1586.3651123046875 1570.1336669921875 1550.9765625 1543.5701904296875 1556.2900390625 1570.3841552734375 1580.0750732421875 1574.8072509765625 1574.3162841796875 1575.021728515625 1576.715087890625 1569.16552734375 1572.2520751953125 1568.8739013671875 1552.6318359375 1526.1707763671875 1500.8243408203125 1484.727783203125 1465.7159423828125 1451.14794921875 1467.484619140625 1494.4141845703125 1484.3660888671875 1467.1890869140625 1450.2518310546875 1435.04248046875 1421.243896484375 1407.6456298828125 1392.9263916015625 -9999 -9999 -9999 -9999 -9999 -9999 -9999 -9999 -9999 -9999 -9999 -9999 -9999 -9999
-9999 -9999 1331.081787109375 1339.5662841796875 1351.955810546875 1355.1448974609375 1370.2955322265625 1380.2646484375 1385.6455078125 1384.5369873046875 1395.8873291015625 1400.1973876953125 1405.828369140625 1413.2059326171875 1413.3421630859375 1421.8753662109375 1403.7989501953125 1410.061279296875 1434.0513916015625 1448.2821044921875 1462.1094970703125 1477.51708984375 1496.574462890625 1514.236572265625 1521.9315185546875 1540.81591796875 1544.715576171875 1541.3402099609375 1559.222412109375 1572.11865234375 1570.2122802734375 1579.0152587890625 1599.182373046875 1601.09130859375 1609.81201171875 1625.8251953125 1635.570556640625 1632.3970947265625 1630.0789794921875 1624.2415771484375 1617.560791015625 1610.026611328125 1606.32177734375 1604.4102783203125 1605.50927734375 1594.876708984375 1579.1392822265625 1563.8975830078125 1561.95556640625 1570.0386962890625 1600.7510986328125 1599.896240234375 1599.8826904296875 1600.56884765625 1605.507568359375 1598.8892822265625 1593.673095703125 1588.8338623046875 1585.0828857421875 1575.505859375 1553.43603515625 1526.6334228515625 1515.2044677734375 1489.7625732421875 1476.5023193359375 1497.566650390625 1501.968505859375 1486.6805419921875 1471.5870361328125 1454.616943359375 1438.7711181640625 1424.696533203125 1411.603515625 -9999 -9999 -9999 -9999 -9999 -9999 -9999 -9999 -9999 -9999 -9999 -9999 -9999 -9999 -9999
-9999 -9999 -9999 1358.2059326171875 1371.509765625 1380.8333740234375 1388.4107666015625 1395.768798828125 1403.4849853515625 1407.529296875 1411.880859375 1416.9840087890625 1421.1427001953125 1427.9908447265625 1432.3350830078125 1436.484619140625 1437.331787109375 1434.793212890625 1453.42236328125 1471.1517333984375 1491.813232421875 1500.7939453125 1525.2008056640625 1537.6065673828125 1542.8289794921875 1557.9161376953125 1564.174560546875 1579.8619384765625 1589.8955078125 1595.4012451171875 1594.0091552734375 1594.9866943359375 1605.66650390625 1616.1715087890625 1623.55712890625 1639.9215087890625 1651.4228515625 1652.0428466796875 1649.7005615234375 1643.336669921875 1633.5828857421875 1628.5408935546875 1619.4669189453125 1617.66064453125 1614.1917724609375 1607.1265869140625 1596.1685791015625 1577.408203125 1577.9407958984375 1609.4483642578125 1615.820556640625 1620.757080078125 1622.1363525390625 1625.490478515625 1622.8402099609375 1616.092041015625 1612.2158203125 1605.17041015625 1599.7025146484375 1594.187744140625 1576.9964599609375 1559.7509765625 1538.839111328125 1515.7022705078125 1504.1754150390625 1514.1666259765625 1502.3193359375 1486.471923828125 1470.8953857421875 1455.7940673828125 1439.133544921875 1424.041015625 -9999 -9999 -9999 -9999 -9999 -9999 -9999 -9999 -9999 -9999 -9999 -9999 -9999 -9999 -9999 -9999
-9999 -9999 -9999 1352.8414306640625 1386.6973876953125 1400.8553466796875 1403.4188232421875 1415.919921875 1419.6622314453125 1423.9512939453125 1421.7322998046875 1437.0311279296875 1439.750244140625 1445.41650390625 1451.190185546875 1457.391845703125 1455.4947509765625 1446.8922119140625 1465.82421875 1476.146240234375 1503.6761474609375 1527.7734375 1530.664794921875 1548.3447265625 1565.986083984375 1575.8232421875 1591.136962890625 1590.5023193359375 1605.9407958984375 1607.179931640625 1609.4984130859375 1617.4222412109375 1623.2388916015625 1630.3760986328125 1639.5615234375 1654.73388671875 1671.0654296875 1670.227294921875 1664.779296875 1655.5732421875 1646.459228515625 1641.463623046875 1637.4300537109375 1634.1295166015625 1627.4061279296875 1628.396728515625 1617.498291015625 1592.700927734375 1587.2412109375 1623.0562744140625 1630.6817626953125 1639.5762939453125 1650.866943359375 1644.9957275390625 1636.342041015625 1628.83740234375 1624.4915771484375 1621.17529296875 1615.6624755859375 1599.091552734375 1578.6092529296875 1561.658935546875 1544.2818603515625 1539.6361083984375 1540.7099609375 1522.8582763671875 1506.53662109375 1490.7216796875 1475.8863525390625 1460.487548828125 1443.2633056640625 1437.272705078125 -9999 -9999 -9999 -9999 -9999 -9999 -9999 -9999 -9999 -9999 -9999 -9999 -9999 -9999 -9999 -9999
-9999 -9999 -9999 -9999 1411.7574462890625 1423.1717529296875 1427.5753173828125 1435.08837890625 1436.810302734375 1440.2408447265625 1452.927978515625 1446.2103271484375 1461.42333984375 1471.998046875 1472.3536376953125 1476.61083984375 1461.890625 1455.9129638671875 1475.0257568359375 1495.4954833984375 1513.53466796875 1537.0902099609375 1554.4515380859375 1560.3922119140625 1573.7818603515625 1605.6187744140625 1606.5936279296875 1619.099853515625 1626.2147216796875 1622.88232421875 1628.636474609375 1638.3348388671875 1643.192138671875 1647.7557373046875 1659.923583984375 1675.754150390625 1683.930908203125 1680.384765625 1672.3145751953125 1665.299560546875 1661.7872314453125 1657.810546875 1655.6290283203125 1651.1932373046875 1642.6748046875 1640.8292236328125 1626.396728515625 1610.6021728515625 1603.35693359375 1634.91552734375 1645.9412841796875 1658.8480224609375 1666.3505859375 1661.4732666015625 1649.465576171875 1641.2718505859375 1638.9747314453125 1639.794189453125 1633.1177978515625 1618.415283203125 1607.3485107421875 1590.99560546875 1575.78466796875 1562.0128173828125 1549.3828125 1533.82958984375 1517.9674072265625 1499.5667724609375 1483.9388427734375 1468.4813232421875 1454.738525390625 -9999 -9999 -9999 -9999 -9999 -9999 -9999 -9999 -9999 -9999 -9999 -9999 -9999 -9999 -9999 -9999 -9999
-9999 -9999 -9999 -9999 1428.552001953125 1444.3411865234375 1449.3983154296875 1453.470703125 1455.755126953125 1457.8299560546875 1471.6513671875 1468.99951171875 1478.943603515625 1494.4022216796875 1489.5106201171875 1495.3741455078125 1479.26123046875 1460.37890625 1482.494873046875 1501.564208984375 1526.3896484375 1539.020751953125 1559.601806640625 1574.56103515625 1588.266357421875 1621.229736328125 1630.4036865234375 1637.0341796875 1639.5125732421875 1638.3626708984375 1651.51416015625 1656.768798828125 1659.5445556640625 1662.6031494140625 1678.72802734375 1699.36279296875 1699.743408203125 1691.0020751953125 1686.744384765625 1679.530517578125 1679.7113037109375 1675.114990234375 1669.619873046875 1666.030029296875 1660.4022216796875 1651.9339599609375 1640.2447509765625 1616.2010498046875 1635.840576171875 1650.0440673828125 1660.6292724609375 1675.643310546875 1683.132080078125 1673.99462890625 1662.329345703125 1654.33154296875 1653.6422119140625 1652.7689208984375 1644.154541015625 1631.7923583984375 1616.517333984375 1597.122802734375 1580.6871337890625 1564.9010009765625 1549.2572021484375 1534.1121826171875 1520.7269287109375 1504.56103515625 1486.9041748046875 1470.2615966796875 -9999 -9999 -9999 -9999 -9999 -9999 -9999 -9999 -9999 -9999 -9999 -9999 -9999 -9999 -9999 -9999 -9999 -9999
-9999 -9999 -9999 -9999 1434.3916015625 1457.6099853515625 1464.956787109375 1468.4603271484375 1479.229736328125 1479.550048828125 1493.1123046875 1502.5574951171875 1509.492431640625 1515.3031005859375 1512.3720703125 1515.766357421875 1506.053466796875 1474.2041015625 1486.6075439453125 1528.611083984375 1537.29345703125 1551.9151611328125 1562.89111328125 1580.6202392578125 1605.396728515625 1621.2032470703125 1633.5531005859375 1644.9686279296875 1654.135498046875 1654.04248046875 1661.3414306640625 1673.5018310546875 1676.952392578125 1691.2550048828125 1701.9560546875 1714.710205078125 1713.83740234375 1707.1009521484375 1702.0167236328125 1697.303466796875 1695.2940673828125 1690.1507568359375 1688.512451171875 1683.1046142578125 1672.93359375 1662.1358642578125 1636.4996337890625 1645.24658203125 1655.6451416015625 1664.894287109375 1675.6571044921875 1691.7967529296875 1695.186767578125 1685.4881591796875 1673.2386474609375 1667.231201171875 1665.5084228515625 1660.576416015625 1648.9644775390625 1634.552490234375 1618.73486328125 1600.81201171875 1583.609619140625 1566.7320556640625 1551.5318603515625 1536.22998046875 1522.1572265625 1507.138427734375 1490.6448974609375 1468.793701171875 -9999 -9999 -9999 -9999 -9999 -9999 -9999 -9999 -9999 -9999 -9999 -9999 -9999 -9999 -9999 -9999 -9999 -9999
-9999 -9999 -9999 -9999 -9999 1462.6036376953125 1482.634765625 1490.67626953125 1502.07421875 1510.2105712890625 1519.5003662109375 1525.6610107421875 1530.7623291015625 1532.989013671875 1536.26123046875 1531.5372314453125 1513.808837890625 1488.588134765625 1499.5301513671875 1516.2666015625 1538.2208251953125 1553.4434814453125 1574.991943359375 1595.5313720703125 1607.2821044921875 1621.1744384765625 1637.072265625 1653.147705078125 1665.36376953125 1670.45556640625 1676.45703125 1687.3970947265625 1696.99365234375 1718.64794921875 1726.9317626953125 1737.0137939453125 1731.363037109375 1719.51025390625 1715.0052490234375 1712.5394287109375 1709.5164794921875 1707.051513671875 1703.0521240234375 1695.3834228515625 1684.453369140625 1656.6051025390625 1651.81396484375 1668.447021484375 1672.0599365234375 1681.8603515625 1693.45947265625 1709.179443359375 1706.5181884765625 1695.253662109375 1684.8448486328125 1679.3446044921875 1673.8115234375 1664.572998046875 1651.606201171875 1636.1217041015625 1619.6556396484375 1603.96630859375 1587.296142578125 1569.8023681640625 1554.6710205078125 1539.701171875 1523.42041015625 1507.9969482421875 1495.8206787109375 -9999 -9999 -9999 -9999 -9999 -9999 -9999 -9999 -9999 -9999 -9999 -9999 -9999 -9999 -9999 -9999 -9999 -9999 -9999
-9999 -9999 -9999 -9999 -9999 1497.1514892578125 1512.9722900390625 1513.9285888671875 1528.5694580078125 1541.17724609375 1540.5296630859375 1550.9337158203125 1548.907470703125 1560.3582763671875 1561.6143798828125 1560.3931884765625 1536.8590087890625 1515.5611572265625 1501.005859375 1525.7008056640625 1548.316650390625 1569.844482421875 1592.1981201171875 1617.36572265625 1621.2335205078125 1631.22900390625 1646.2764892578125 1663.567138671875 1678.1533203125 1685.774169921875 1689.5528564453125 1699.8651123046875 1723.2291259765625 1737.4871826171875 1746.4215087890625 1750.451171875 1739.79052734375 1730.68212890625 1729.26904296875 1727.68212890625 1725.34521484375 1720.8087158203125 1716.5543212890625 1705.4935302734375 1686.6373291015625 1666.87744140625 1678.9415283203125 1683.7615966796875 1689.3863525390625 1699.728271484375 1714.168212890625 1729.0723876953125 1720.8074951171875 1705.9918212890625 1696.51123046875 1689.1278076171875 1678.6103515625 1665.5765380859375 1650.6170654296875 1635.2998046875 1619.030029296875 1603.1776123046875 1588.042236328125 1572.176025390625 1558.3419189453125 1541.88671875 1524.529052734375 1508.7779541015625 -9999 -9999 -9999 -9999 -9999 -9999 -9999 -9999 -9999 -9999 -9999 -9999 -9999 -9999 -9999 -9999 -9999 -9999 -9999 -9999
-9999 -9999 -9999 -9999 -9999 -9999 1502.8345947265625 1519.79931640625 1543.8165283203125 1558.1029052734375 1564.5140380859375 1567.0677490234375 1570.2791748046875 1578.0589599609375 1587.2908935546875 1591.3839111328125 1581.29150390625 1545.3846435546875 1507.6614990234375 1537.186279296875 1548.406494140625 1571.880615234375 1606.84228515625 1624.78515625 1638.4915771484375 1651.0396728515625 1659.9755859375 1676.5084228515625 1700.1448974609375 1713.522216796875 1717.826171875 1719.4178466796875 1725.6756591796875 1745.482421875 1759.5234375 1762.097900390625 1753.6748046875 1744.9893798828125 1739.94482421875 1739.602294921875 1733.82666015625 1730.4505615234375 1725.3447265625 1712.035400390625 1684.6998291015625 1694.416748046875 1700.20751953125 1700.351318359375 1708.9447021484375 1719.5458984375 1748.998779296875 1740.8973388671875 1729.0347900390625 1715.8470458984375 1705.953125 1695.4583740234375 1681.03564453125 1665.7911376953125 1651.3406982421875 1636.977294921875 1621.75927734375 1605.877197265625 1591.2081298828125 1573.5693359375 1558.8585205078125 1542.8717041015625 1530.2772216796875 1514.8447265625 -9999 -9999 -9999 -9999 -9999 -9999 -9999 -9999 -9999 -9999 -9999 -9999 -9999 -9999 -9999 -9999 -9999 -9999 -9999 -9999
