ncols        130
nrows        50
xllcorner    247320.745355
yllcorner    351377.455564
cellsize     20.000000000000
NODATA_value  -9999
-9999 -9999 -9999 2295.011962890625 2314.28076171875 2339.956787109375 2355.539794921875 2367.803466796875 2383.91748046875 2398.678466796875 2413.6865234375 2421.401611328125 2446.755859375 2439.113037109375 2424.993896484375 2417.229736328125 2409.05859375 2399.20849609375 2386.244873046875 2378.362060546875 2388.78271484375 2379.290771484375 2363.04541015625 2352.4775390625 2339.27685546875 2324.206298828125 2312.333984375 2294.058349609375 2300.661376953125 2307.663818359375 2297.985595703125 2290.98876953125 2285.257080078125 2280.954345703125 2272.94482421875 2263.29736328125 2257.5732421875 2246.81689453125 2236.6337890625 2221.1748046875 2209.665771484375 2201.69384765625 2191.15771484375 2181.883544921875 2171.68359375 2163.4462890625 2156.851318359375 2153.808349609375 2150.91748046875 2149.57421875 2144.587890625 2138.230712890625 2133.9306640625 2122.47314453125 2098.3447265625 2069.230224609375 2049.634765625 2054.32861328125 2047.204345703125 2029.6436767578125 2002.417236328125 1979.613037109375 1959.2337646484375 1942.6314697265625 1934.2020263671875 1916.6666259765625 1884.7633056640625 1845.0469970703125 1828.3427734375 -9999 -9999 -9999 -9999 -9999 -9999 -9999 -9999 -9999 -9999 -9999 -9999 -9999 -9999 -9999 -9999 -9999 -9999 -9999 -9999 -9999 -9999 -9999 -9999 -9999 -9999 -9999 -9999 -9999 -9999 -9999 -9999 -9999 -9999 -9999 -9999 -9999 -9999 -9999 -9999 -9999 -9999 -9999 -9999 -9999 -9999 -9999 -9999 -9999 -9999 -9999 -9999 -9999 -9999 -9999 -9999 -9999 -9999 -9999 -9999 -9999
-9999 -9999 -9999 2307.78466796875 2336.474853515625 2354.3056640625 2369.284423828125 2392.26171875 2404.30126953125 2408.25 2423.66162109375 2436.4609375 2432.35986328125 2419.735595703125 2410.412353515625 2404.152587890625 2396.688232421875 2389.411376953125 2375.285888671875 2360.05126953125 2353.727783203125 2349.146484375 2349.91064453125 2339.637451171875 2327.10888671875 2325.549560546875 2298.65283203125 2278.749755859375 2271.848876953125 2295.730712890625 2283.74560546875 2271.138671875 2285.430419921875 2279.64697265625 2268.89990234375 2257.28125 2245.334228515625 2240.280029296875 2231.720458984375 2215.64697265625 2209.21630859375 2203.663330078125 2193.9794921875 2186.32275390625 2177.7734375 2171.185302734375 2166.963623046875 2162.291259765625 2161.883544921875 2158.979736328125 2151.640869140625 2144.611083984375 2137.940185546875 2125.430908203125 2088.572998046875 2090.727294921875 2076.608154296875 2071.97607421875 2052.733154296875 2035.928466796875 2022.045654296875 1993.787353515625 1970.324462890625 1953.1629638671875 1932.812744140625 1904.452880859375 1880.11376953125 1851.63671875 1827.229248046875 1805.8980712890625 1794.966552734375 -9999 -9999 -9999 -9999 -9999 -9999 -9999 -9999 -9999 -9999 -9999 -9999 -9999 -9999 -9999 -9999 -9999 -9999 -9999 -9999 -9999 -9999 -9999 -9999 -9999 -9999 -9999 -9999 -9999 -9999 -9999 -9999 -9999 -9999 -9999 -9999 -9999 -9999 -9999 -9999 -9999 -9999 -9999 -9999 -9999 -9999 -9999 -9999 -9999 -9999 -9999 -9999 -9999 -9999 -9999 -9999 -9999 -9999 -9999
-9999 -9999 -9999 2322.974853515625 2349.006103515625 2369.271484375 2383.27099609375 2400.521240234375 2414.970947265625 2420.116455078125 2433.9169921875 2434.390625 2421.501708984375 2410.79052734375 2400.400634765625 2392.727294921875 2386.12158203125 2380.026123046875 2373.08203125 2359.971435546875 2340.875 2325.396240234375 2337.5390625 2322.06640625 2307.81201171875 2292.548828125 2275.5654296875 2262.478759765625 2268.247314453125 2282.28759765625 2262.87353515625 2249.90625 2278.203369140625 2270.103515625 2264.281494140625 2250.779052734375 2234.293701171875 2225.919189453125 2223.20458984375 2216.143798828125 2207.732666015625 2201.62890625 2195.313232421875 2189.2568359375 2182.810791015625 2178.17626953125 2172.395263671875 2170.4345703125 2167.359619140625 2163.438232421875 2159.199951171875 2149.2919921875 2144.513916015625 2111.001708984375 2111.3369140625 2114.07421875 2103.4287109375 2087.766845703125 2071.883544921875 2041.1322021484375 2025.97021484375 2007.514404296875 1992.4027099609375 1973.5814208984375 1955.76220703125 1925.3311767578125 1882.7945556640625 1865.1307373046875 1819.0074462890625 1805.3526611328125 1786.1973876953125 1775.6649169921875 1777.5916748046875 -9999 -9999 -9999 -9999 -9999 -9999 -9999 -9999 -9999 -9999 -9999 -9999 -9999 -9999 -9999 -9999 -9999 -9999 -9999 -9999 -9999 -9999 -9999 -9999 -9999 -9999 -9999 -9999 -9999 -9999 -9999 -9999 -9999 -9999 -9999 -9999 -9999 -9999 -9999 -9999 -9999 -9999 -9999 -9999 -9999 -9999 -9999 -9999 -9999 -9999 -9999 -9999 -9999 -9999 -9999 -9999 -9999
-9999 -9999 2305.65625 2311.437255859375 2343.318115234375 2386.874755859375 2401.3212890625 2413.038818359375 2426.48583984375 2433.583740234375 2440.4150390625 2428.447998046875 2416.904052734375 2409.484619140625 2400.476806640625 2391.959228515625 2382.6416015625 2374.267578125 2360.181396484375 2346.362548828125 2340.374267578125 2315.600341796875 2306.79248046875 2294.74658203125 2284.9345703125 2277.16943359375 2262.221435546875 2253.04296875 2237.02587890625 2238.2119140625 2245.099365234375 2237.423583984375 2235.65087890625 2243.37646484375 2260.8408203125 2247.357177734375 2229.726318359375 2213.270751953125 2206.853271484375 2203.7216796875 2193.636962890625 2187.694580078125 2198.566650390625 2191.594482421875 2187.014892578125 2183.044921875 2179.28955078125 2175.623779296875 2171.873291015625 2166.74169921875 2163.486328125 2149.89208984375 2136.71875 2142.3125 2141.97119140625 2135.724365234375 2116.8388671875 2098.56884765625 2065.71044921875 2043.5947265625 2019.6400146484375 1996.8076171875 1970.967529296875 1978.6771240234375 1957.9251708984375 1943.81005859375 1889.2767333984375 1842.6949462890625 1814.474853515625 1789.142333984375 1774.16162109375 1766.8465576171875 1758.254150390625 1768.0843505859375 -9999 -9999 -9999 -9999 -9999 -9999 -9999 -9999 -9999 -9999 -9999 -9999 -9999 -9999 -9999 -9999 -9999 -9999 -9999 -9999 -9999 -9999 -9999 -9999 -9999 -9999 -9999 -9999 -9999 -9999 -9999 -9999 -9999 -9999 -9999 -9999 -9999 -9999 -9999 -9999 -9999 -9999 -9999 -9999 -9999 -9999 -9999 -9999 -9999 -9999 -9999 -9999 -9999 -9999 -9999 -9999
-9999 -9999 2319.027099609375 2325.360595703125 2364.105224609375 2401.659423828125 2416.421142578125 2426.656494140625 2435.77490234375 2448.672607421875 2439.0263671875 2426.15869140625 2419.363525390625 2412.486572265625 2401.699462890625 2390.498046875 2380.89013671875 2368.27001953125 2357.16943359375 2340.8466796875 2324.512451171875 2308.677490234375 2293.36865234375 2284.604736328125 2272.870361328125 2260.69580078125 2249.204345703125 2238.4423828125 2228.33251953125 2218.678466796875 2214.257568359375 2207.761474609375 2208.685791015625 2207.431884765625 2214.61083984375 2224.7958984375 2226.73486328125 2211.81591796875 2195.45654296875 2182.302734375 2176.55859375 2172.7900390625 2179.404296875 2176.92041015625 2189.559814453125 2172.83837890625 2171.953125 2180.314453125 2174.486328125 2172.815185546875 2168.62353515625 2164.77197265625 2166.416259765625 2158.58837890625 2150.716552734375 2140.240966796875 2115.7236328125 2104.661376953125 2070.37744140625 2048.9892578125 2027.0557861328125 2016.8707275390625 1977.56005859375 1938.7698974609375 1922.1341552734375 1907.6810302734375 1896.591796875 1846.485595703125 1805.8031005859375 1782.374267578125 1768.5506591796875 1754.805419921875 1745.9908447265625 1749.2540283203125 1759.84619140625 1772.4898681640625 -9999 -9999 -9999 -9999 -9999 -9999 -9999 -9999 -9999 -9999 -9999 -9999 -9999 -9999 -9999 -9999 -9999 -9999 -9999 -9999 -9999 -9999 -9999 -9999 -9999 -9999 -9999 -9999 -9999 -9999 -9999 -9999 -9999 -9999 -9999 -9999 -9999 -9999 -9999 -9999 -9999 -9999 -9999 -9999 -9999 -9999 -9999 -9999 -9999 -9999 -9999 -9999 -9999 -9999
-9999 -9999 2332.23095703125 2338.2236328125 2378.983642578125 2417.2314453125 2430.417724609375 2443.777099609375 2446.111083984375 2453.919921875 2439.4560546875 2430.31689453125 2420.489990234375 2412.673095703125 2402.623779296875 2397.07763671875 2386.42041015625 2364.14306640625 2341.21337890625 2329.919677734375 2315.087158203125 2302.13623046875 2291.55859375 2272.19873046875 2262.4990234375 2252.149169921875 2242.07275390625 2229.40185546875 2219.8662109375 2210.394775390625 2200.55126953125 2195.40185546875 2192.0224609375 2190.152099609375 2195.529541015625 2213.72412109375 2223.1884765625 2207.147216796875 2189.325927734375 2173.711181640625 2159.792724609375 2156.4306640625 2157.41552734375 2158.662109375 2167.20166015625 2156.694091796875 2149.7099609375 2171.76025390625 2171.326416015625 2182.566650390625 2176.134033203125 2179.9580078125 2158.298828125 2145.621826171875 2109.463134765625 2099.72607421875 2101.1416015625 2071.894775390625 2048.515625 2033.53662109375 2016.2955322265625 1995.7889404296875 1980.48876953125 1958.343994140625 1941.9630126953125 1904.340087890625 1868.661865234375 1855.056396484375 1823.491455078125 1781.227294921875 1759.5245361328125 1747.1373291015625 1733.688232421875 1732.7926025390625 1742.9189453125 1758.8905029296875 1769.8062744140625 1757.41650390625 -9999 -9999 -9999 -9999 -9999 -9999 -9999 -9999 -9999 -9999 -9999 -9999 -9999 -9999 -9999 -9999 -9999 -9999 -9999 -9999 -9999 -9999 -9999 -9999 -9999 -9999 -9999 -9999 -9999 -9999 -9999 -9999 -9999 -9999 -9999 -9999 -9999 -9999 -9999 -9999 -9999 -9999 -9999 -9999 -9999 -9999 -9999 -9999 -9999 -9999 -9999 -9999
-9999 2333.75048828125 2340.758056640625 2352.9755859375 2415.47119140625 2431.2744140625 2441.3984375 2453.18701171875 2460.866455078125 2454.68115234375 2443.82763671875 2433.50244140625 2424.024658203125 2415.33984375 2408.656982421875 2402.34619140625 2386.4404296875 2358.65576171875 2333.6298828125 2316.408447265625 2306.15234375 2294.354248046875 2280.95166015625 2265.89599609375 2252.641357421875 2239.1083984375 2232.398193359375 2222.314208984375 2211.483642578125 2201.747314453125 2191.49853515625 2182.0654296875 2175.207763671875 2173.716064453125 2177.87060546875 2203.7822265625 2206.7568359375 2204.46044921875 2189.039306640625 2172.069091796875 2155.311279296875 2135.755615234375 2124.883056640625 2126.951416015625 2115.603759765625 2111.258544921875 2114.6220703125 2119.420654296875 2170.681884765625 2182.766845703125 2173.55322265625 2133.63037109375 2097.262939453125 2079.26025390625 2057.388671875 2041.05322265625 2048.14697265625 2035.7158203125 2002.6326904296875 1994.18408203125 1982.7440185546875 1965.9417724609375 1948.4603271484375 1940.484375 1920.9718017578125 1906.119873046875 1866.376220703125 1829.6810302734375 1818.004150390625 1795.015625 1763.208251953125 1735.5576171875 1724.603759765625 1715.1224365234375 1728.697998046875 1744.2176513671875 1744.306640625 1745.7952880859375 1722.9298095703125 1685.8533935546875 -9999 -9999 -9999 -9999 -9999 -9999 -9999 -9999 -9999 -9999 -9999 -9999 -9999 -9999 -9999 -9999 -9999 -9999 -9999 -9999 -9999 -9999 -9999 -9999 -9999 -9999 -9999 -9999 -9999 -9999 -9999 -9999 -9999 -9999 -9999 -9999 -9999 -9999 -9999 -9999 -9999 -9999 -9999 -9999 -9999 -9999 -9999 -9999 -9999 -9999
-9999 2345.397216796875 2362.5517578125 2363.049560546875 2408.960205078125 2440.38037109375 2459.908447265625 2461.925537109375 2465.702880859375 2456.861083984375 2446.326171875 2437.36669921875 2427.3076171875 2419.900146484375 2411.037841796875 2405.736328125 2358.826416015625 2341.632080078125 2324.579833984375 2309.83984375 2296.5908203125 2288.127685546875 2276.049072265625 2250.52685546875 2240.080078125 2232.90576171875 2221.218017578125 2214.056640625 2203.698974609375 2194.477294921875 2183.193359375 2172.806396484375 2163.332275390625 2159.017822265625 2156.851318359375 2170.60498046875 2179.19873046875 2193.14453125 2182.05908203125 2172.435302734375 2151.609130859375 2132.67724609375 2111.491455078125 2100.947509765625 2093.66357421875 2070.85693359375 2052.4658203125 2075.09814453125 2095.769775390625 2088.66796875 2088.0791015625 2079.06005859375 2054.2294921875 2039.4503173828125 2015.4073486328125 2019.6922607421875 1995.8238525390625 2000.7725830078125 1974.932373046875 1972.2891845703125 1964.21826171875 1951.6728515625 1927.1929931640625 1900.6707763671875 1897.8345947265625 1869.778076171875 1835.671142578125 1816.9373779296875 1798.45556640625 1781.692626953125 1755.034423828125 1727.9935302734375 1712.87353515625 1702.2425537109375 1704.322021484375 1727.2928466796875 1728.1065673828125 1731.16796875 1712.5819091796875 1680.7437744140625 1662.4283447265625 1646.747802734375 -9999 -9999 -9999 -9999 -9999 -9999 -9999 -9999 -9999 -9999 -9999 -9999 -9999 -9999 -9999 -9999 -9999 -9999 -9999 -9999 -9999 -9999 -9999 -9999 -9999 -9999 -9999 -9999 -9999 -9999 -9999 -9999 -9999 -9999 -9999 -9999 -9999 -9999 -9999 -9999 -9999 -9999 -9999 -9999 -9999 -9999 -9999 -9999
-9999 2354.443603515625 2380.293701171875 2375.510498046875 2405.364501953125 2455.64111328125 2467.174072265625 2473.9267578125 2471.366943359375 2459.399658203125 2449.9443359375 2441.34033203125 2431.6806640625 2427.442626953125 2400.442138671875 2378.124755859375 2362.521240234375 2346.251953125 2323.275634765625 2306.749267578125 2290.498779296875 2276.341796875 2261.11865234375 2242.189208984375 2231.08251953125 2222.407958984375 2214.539794921875 2202.8623046875 2194.95263671875 2185.733154296875 2176.87158203125 2164.216796875 2153.796142578125 2145.054931640625 2140.279052734375 2145.947265625 2161.534912109375 2182.464111328125 2168.197509765625 2154.86572265625 2128.683349609375 2112.125732421875 2090.2099609375 2069.826171875 2068.067626953125 2042.4017333984375 2032.342529296875 2051.93115234375 2047.676025390625 2045.9930419921875 2031.9976806640625 2068.58154296875 2043.573486328125 2019.533447265625 2004.937744140625 1976.9681396484375 1972.1876220703125 1961.2740478515625 1954.9974365234375 1955.772705078125 1934.14794921875 1892.1973876953125 1876.487548828125 1855.6365966796875 1839.0010986328125 1833.3302001953125 1822.916259765625 1804.632080078125 1785.6693115234375 1765.04052734375 1745.967041015625 1725.250732421875 1707.0865478515625 1690.2532958984375 1687.633056640625 1700.94189453125 1711.01318359375 1698.2647705078125 1699.9678955078125 1677.778076171875 1660.98046875 1644.6517333984375 1628.7318115234375 -9999 -9999 -9999 -9999 -9999 -9999 -9999 -9999 -9999 -9999 -9999 -9999 -9999 -9999 -9999 -9999 -9999 -9999 -9999 -9999 -9999 -9999 -9999 -9999 -9999 -9999 -9999 -9999 -9999 -9999 -9999 -9999 -9999 -9999 -9999 -9999 -9999 -9999 -9999 -9999 -9999 -9999 -9999 -9999 -9999 -9999 -9999
2367.435302734375 2369.9453125 2395.515380859375 2398.096435546875 2413.822998046875 2445.988037109375 2472.614501953125 2472.394775390625 2474.4150390625 2462.96630859375 2453.45703125 2445.77734375 2438.713134765625 2428.743408203125 2399.45751953125 2375.15234375 2358.146484375 2341.20556640625 2325.080078125 2309.262939453125 2294.841796875 2277.00927734375 2254.39453125 2240.01904296875 2227.404052734375 2215.9794921875 2206.18603515625 2197.1572265625 2187.03369140625 2176.814208984375 2167.201416015625 2159.552001953125 2146.721435546875 2135.5869140625 2126.493408203125 2121.25048828125 2119.26123046875 2126.962890625 2137.75634765625 2134.166259765625 2119.85693359375 2083.416015625 2065.016357421875 2043.68017578125 2044.1607666015625 2020.2056884765625 2001.3690185546875 2035.488037109375 2017.325439453125 2016.525390625 1996.6898193359375 2038.20458984375 2028.04638671875 2012.211181640625 1980.0330810546875 1959.952880859375 1947.81591796875 1927.1751708984375 1926.6590576171875 1889.1474609375 1871.0379638671875 1858.593994140625 1845.2276611328125 1831.328369140625 1822.294921875 1813.0751953125 1805.4520263671875 1788.960205078125 1772.1549072265625 1752.4105224609375 1729.4466552734375 1717.09228515625 1700.436767578125 1679.0550537109375 1670.6802978515625 1672.345458984375 1673.067626953125 1666.49853515625 1679.490478515625 1672.655517578125 1662.0751953125 1646.979736328125 1631.3624267578125 1614.3070068359375 1598.6319580078125 -9999 -9999 -9999 -9999 -9999 -9999 -9999 -9999 -9999 -9999 -9999 -9999 -9999 -9999 -9999 -9999 -9999 -9999 -9999 -9999 -9999 -9999 -9999 -9999 -9999 -9999 -9999 -9999 -9999 -9999 -9999 -9999 -9999 -9999 -9999 -9999 -9999 -9999 -9999 -9999 -9999 -9999 -9999 -9999 -9999
2382.23486328125 2382.44970703125 2401.19873046875 2416.982421875 2409.02001953125 2429.429931640625 2453.154296875 2457.4873046875 2462.186767578125 2458.437744140625 2457.262451171875 2450.703857421875 2442.670166015625 2430.63720703125 2396.072265625 2378.27978515625 2361.800048828125 2345.255615234375 2328.94482421875 2313.948486328125 2294.794189453125 2271.245361328125 2247.638427734375 2233.67822265625 2222.032958984375 2211.163818359375 2200.639404296875 2190.448486328125 2180.96240234375 2169.981201171875 2159.124755859375 2149.37060546875 2141.03369140625 2132.263916015625 2118.649658203125 2108.62646484375 2103.786376953125 2095.9111328125 2088.35791015625 2089.03466796875 2076.71826171875 2055.85107421875 2038.6751708984375 2021.1129150390625 2009.2550048828125 2000.529052734375 1978.3363037109375 2003.6243896484375 1976.63720703125 1974.239013671875 1968.1453857421875 1951.911376953125 1998.3309326171875 2008.5880126953125 1990.4808349609375 1961.232421875 1932.867919921875 1902.690673828125 1884.2022705078125 1876.2724609375 1864.1468505859375 1851.642333984375 1837.276123046875 1823.179443359375 1808.0848388671875 1791.0025634765625 1786.0947265625 1784.2933349609375 1757.8592529296875 1746.517333984375 1727.8905029296875 1701.062255859375 1686.168701171875 1672.726318359375 1659.6036376953125 1655.0599365234375 1649.053955078125 1651.15185546875 1654.9534912109375 1658.23193359375 1654.6661376953125 1643.1934814453125 1628.12841796875 1612.505859375 1596.8294677734375 1582.023681640625 -9999 -9999 -9999 -9999 -9999 -9999 -9999 -9999 -9999 -9999 -9999 -9999 -9999 -9999 -9999 -9999 -9999 -9999 -9999 -9999 -9999 -9999 -9999 -9999 -9999 -9999 -9999 -9999 -9999 -9999 -9999 -9999 -9999 -9999 -9999 -9999 -9999 -9999 -9999 -9999 -9999 -9999 -9999 -9999
2395.94189453125 2400.735595703125 2418.595458984375 2439.146240234375 2429.0263671875 2438.4345703125 2435.52490234375 2431.88525390625 2434.408203125 2438.04736328125 2433.35693359375 2439.944580078125 2443.13671875 2412.1923828125 2393.90576171875 2376.77197265625 2357.13818359375 2342.455322265625 2326.50634765625 2308.493408203125 2284.0693359375 2263.11474609375 2247.79833984375 2233.689208984375 2219.60205078125 2206.862548828125 2195.210693359375 2184.40185546875 2175.391845703125 2166.205810546875 2156.1083984375 2142.404541015625 2131.37451171875 2122.464111328125 2114.85107421875 2103.353515625 2089.20458984375 2084.812255859375 2075.883056640625 2066.445556640625 2059.832275390625 2049.77099609375 2035.22021484375 2019.8853759765625 2003.2532958984375 1986.876708984375 1971.5452880859375 1955.7796630859375 1940.004150390625 1923.66748046875 1908.28857421875 1893.4794921875 1908.890380859375 1955.3692626953125 1976.7630615234375 1938.068359375 1910.2900390625 1889.7142333984375 1873.2484130859375 1860.118896484375 1852.365966796875 1843.630859375 1831.113037109375 1816.513671875 1804.45166015625 1779.8743896484375 1761.205810546875 1762.7037353515625 1742.5970458984375 1732.7530517578125 1716.3394775390625 1698.7646484375 1677.6585693359375 1664.9898681640625 1653.55712890625 1640.9571533203125 1634.2281494140625 1635.2708740234375 1635.190673828125 1637.3966064453125 1643.866455078125 1637.325927734375 1624.5736083984375 1610.7454833984375 1596.2418212890625 1581.98486328125 1566.1009521484375 -9999 -9999 -9999 -9999 -9999 -9999 -9999 -9999 -9999 -9999 -9999 -9999 -9999 -9999 -9999 -9999 -9999 -9999 -9999 -9999 -9999 -9999 -9999 -9999 -9999 -9999 -9999 -9999 -9999 -9999 -9999 -9999 -9999 -9999 -9999 -9999 -9999 -9999 -9999 -9999 -9999 -9999 -9999
2410.070556640625 2417.641357421875 2431.598876953125 2447.6396484375 2442.69482421875 2425.373779296875 2418.83447265625 2419.099609375 2413.563232421875 2415.949951171875 2406.815185546875 2409.6630859375 2419.35107421875 2415.51953125 2389.427734375 2369.188720703125 2351.513427734375 2333.060302734375 2321.184814453125 2300.076171875 2281.198486328125 2262.186767578125 2246.904052734375 2232.983154296875 2219.114990234375 2205.997314453125 2193.826171875 2182.029296875 2171.20458984375 2163.461181640625 2154.327392578125 2144.66259765625 2130.455810546875 2116.60400390625 2104.9140625 2096.91552734375 2086.7822265625 2071.197265625 2065.708984375 2055.132080078125 2042.75 2045.146728515625 2037.03125 2023.281982421875 2007.9000244140625 1993.3109130859375 1978.5906982421875 1955.47705078125 1936.192626953125 1926.491943359375 1909.1312255859375 1892.8299560546875 1871.2530517578125 1863.0748291015625 1893.8951416015625 1917.7799072265625 1892.489013671875 1887.8953857421875 1871.3468017578125 1855.0662841796875 1837.5389404296875 1823.285400390625 1813.29931640625 1805.62451171875 1791.720458984375 1775.34765625 1748.685791015625 1738.2891845703125 1730.1605224609375 1715.8214111328125 1700.4932861328125 1685.23828125 1671.3621826171875 1657.4002685546875 1642.469970703125 1634.0460205078125 1621.7373046875 1619.02099609375 1616.378662109375 1619.8515625 1623.98095703125 1629.567138671875 1616.5897216796875 1603.0919189453125 1592.1226806640625 1576.536865234375 1565.236572265625 1549.3634033203125 -9999 -9999 -9999 -9999 -9999 -9999 -9999 -9999 -9999 -9999 -9999 -9999 -9999 -9999 -9999 -9999 -9999 -9999 -9999 -9999 -9999 -9999 -9999 -9999 -9999 -9999 -9999 -9999 -9999 -9999 -9999 -9999 -9999 -9999 -9999 -9999 -9999 -9999 -9999 -9999 -9999 -9999
-9999 2434.969970703125 2450.683349609375 2458.939208984375 2448.698974609375 2422.28759765625 2405.434326171875 2390.2373046875 2393.694580078125 2402.165283203125 2384.316162109375 2400.410400390625 2403.20654296875 2398.951171875 2387.731689453125 2363.642333984375 2340.89404296875 2320.623779296875 2307.153564453125 2289.001220703125 2274.464599609375 2260.6162109375 2246.5654296875 2232.177978515625 2219.54345703125 2207.26953125 2194.705322265625 2183.030517578125 2171.61328125 2159.898193359375 2149.41162109375 2139.4892578125 2129.338623046875 2117.044921875 2104.977783203125 2091.858642578125 2078.205322265625 2070.507080078125 2057.0712890625 2038.9739990234375 2031.14794921875 2023.3800048828125 2035.2293701171875 2025.3975830078125 2011.8074951171875 1998.808349609375 1982.96142578125 1952.2413330078125 1931.546630859375 1918.7095947265625 1918.7786865234375 1899.602294921875 1865.08056640625 1850.862548828125 1852.4010009765625 1894.3997802734375 1871.6776123046875 1866.7989501953125 1862.7669677734375 1844.261962890625 1829.647705078125 1814.7972412109375 1797.5906982421875 1784.122314453125 1769.8472900390625 1751.79833984375 1741.4996337890625 1723.9371337890625 1711.1873779296875 1701.7789306640625 1691.8665771484375 1678.3441162109375 1664.056396484375 1649.4822998046875 1636.809326171875 1626.2486572265625 1613.871337890625 1604.20166015625 1600.6260986328125 1600.601806640625 1600.947021484375 1609.23779296875 1599.5535888671875 1588.93115234375 1576.631591796875 1561.44970703125 1554.7396240234375 1544.1497802734375 1524.50341796875 -9999 -9999 -9999 -9999 -9999 -9999 -9999 -9999 -9999 -9999 -9999 -9999 -9999 -9999 -9999 -9999 -9999 -9999 -9999 -9999 -9999 -9999 -9999 -9999 -9999 -9999 -9999 -9999 -9999 -9999 -9999 -9999 -9999 -9999 -9999 -9999 -9999 -9999 -9999 -9999 -9999
-9999 2450.196044921875 2454.762939453125 2441.79931640625 2429.6298828125 2418.579833984375 2394.06591796875 2382.72705078125 2367.5029296875 2364.023681640625 2363.348876953125 2369.81982421875 2377.85986328125 2378.83837890625 2373.077392578125 2355.764404296875 2338.95458984375 2322.2431640625 2307.093994140625 2294.09619140625 2274.957763671875 2259.013916015625 2245.464599609375 2232.7041015625 2218.760986328125 2206.148193359375 2193.860107421875 2181.46533203125 2169.458740234375 2157.93212890625 2146.189208984375 2135.640625 2125.85205078125 2116.38916015625 2107.296142578125 2091.438720703125 2077.58984375 2063.334716796875 2049.699951171875 2036.501953125 2018.5145263671875 2003.0626220703125 1997.0146484375 1996.4490966796875 2014.302490234375 2003.2130126953125 1982.014892578125 1955.7427978515625 1936.811767578125 1890.0374755859375 1922.650390625 1895.421142578125 1864.2890625 1837.744384765625 1828.9600830078125 1844.58349609375 1840.73046875 1848.5054931640625 1860.1517333984375 1847.3162841796875 1827.7952880859375 1808.6444091796875 1800.390380859375 1782.44677734375 1755.7076416015625 1744.0333251953125 1728.6558837890625 1714.112060546875 1699.9661865234375 1689.6395263671875 1678.2064208984375 1669.8260498046875 1657.34521484375 1643.3638916015625 1628.9090576171875 1617.1326904296875 1605.1619873046875 1594.888916015625 1586.927734375 1584.0054931640625 1584.02783203125 1586.1824951171875 1582.4830322265625 1567.718505859375 1556.6817626953125 1544.7418212890625 1535.868896484375 1528.408203125 1516.8055419921875 1498.6431884765625 -9999 -9999 -9999 -9999 -9999 -9999 -9999 -9999 -9999 -9999 -9999 -9999 -9999 -9999 -9999 -9999 -9999 -9999 -9999 -9999 -9999 -9999 -9999 -9999 -9999 -9999 -9999 -9999 -9999 -9999 -9999 -9999 -9999 -9999 -9999 -9999 -9999 -9999 -9999 -9999
-9999 2464.427001953125 2452.2568359375 2429.675048828125 2401.076416015625 2387.211669921875 2376.90673828125 2371.959716796875 2360.26806640625 2343.962646484375 2342.588134765625 2360.19482421875 2366.143798828125 2362.4287109375 2365.446533203125 2350.65576171875 2338.0146484375 2333.60498046875 2314.795654296875 2298.96142578125 2281.18896484375 2262.795654296875 2247.958984375 2235.809814453125 2220.226318359375 2206.64501953125 2193.6025390625 2180.626708984375 2168.0576171875 2155.990234375 2144.692138671875 2133.87744140625 2123.3671875 2114.5205078125 2108.05517578125 2096.469482421875 2081.32080078125 2068.89208984375 2053.161376953125 2033.9215087890625 2020.0980224609375 2003.05029296875 1992.2713623046875 1972.7255859375 1960.0595703125 1980.13720703125 1968.961669921875 1948.30810546875 1929.3748779296875 1900.520751953125 1862.4161376953125 1889.9244384765625 1856.9703369140625 1833.0572509765625 1816.1663818359375 1823.3199462890625 1835.0250244140625 1813.52783203125 1828.3006591796875 1837.1495361328125 1821.9620361328125 1797.0941162109375 1777.306884765625 1755.6923828125 1746.5672607421875 1734.5877685546875 1723.863525390625 1712.594970703125 1699.331298828125 1686.4456787109375 1672.1044921875 1656.332275390625 1644.04443359375 1635.2095947265625 1622.5823974609375 1608.4964599609375 1596.9652099609375 1585.521728515625 1576.3572998046875 1569.34375 1568.5733642578125 1566.1273193359375 1562.873291015625 1550.5142822265625 1540.1842041015625 1531.1749267578125 1521.230224609375 1511.4019775390625 1502.2490234375 1490.4061279296875 1478.3511962890625 1466.8092041015625 -9999 -9999 -9999 -9999 -9999 -9999 -9999 -9999 -9999 -9999 -9999 -9999 -9999 -9999 -9999 -9999 -9999 -9999 -9999 -9999 -9999 -9999 -9999 -9999 -9999 -9999 -9999 -9999 -9999 -9999 -9999 -9999 -9999 -9999 -9999 -9999 -9999 -9999
-9999 -9999 2447.90869140625 2418.051513671875 2400.745361328125 2381.773681640625 2365.713623046875 2351.084228515625 2345.536376953125 2332.431396484375 2321.879638671875 2333.58154296875 2340.220947265625 2336.80908203125 2350.43798828125 2338.453857421875 2330.12646484375 2315.022705078125 2318.6806640625 2301.823486328125 2286.13037109375 2270.326171875 2257.23193359375 2244.888427734375 2232.595947265625 2214.87548828125 2200.6455078125 2184.957275390625 2171.852294921875 2158.053466796875 2144.920654296875 2133.05810546875 2121.87060546875 2112.81640625 2105.35498046875 2100.95458984375 2086.56298828125 2075.569091796875 2055.341552734375 2040.3363037109375 2024.9522705078125 2011.943603515625 1999.385009765625 1969.2392578125 1947.8466796875 1942.3515625 1972.5950927734375 1952.484619140625 1926.821044921875 1896.660400390625 1860.6656494140625 1842.1026611328125 1862.079345703125 1843.8565673828125 1808.499755859375 1794.5440673828125 1815.8822021484375 1809.148193359375 1797.0682373046875 1819.5653076171875 1811.4754638671875 1793.808837890625 1768.31494140625 1747.1856689453125 1733.30419921875 1725.511962890625 1712.6243896484375 1703.4783935546875 1693.4608154296875 1682.14404296875 1669.5738525390625 1656.4700927734375 1642.39404296875 1630.00732421875 1615.2508544921875 1602.635986328125 1592.063232421875 1578.9720458984375 1568.4864501953125 1559.246337890625 1551.83935546875 1547.77099609375 1540.5467529296875 1534.3267822265625 1526.4674072265625 1519.3070068359375 1509.7059326171875 1499.6854248046875 1489.1151123046875 1479.1190185546875 1467.2852783203125 1455.574462890625 1444.684326171875 -9999 -9999 -9999 -9999 -9999 -9999 -9999 -9999 -9999 -9999 -9999 -9999 -9999 -9999 -9999 -9999 -9999 -9999 -9999 -9999 -9999 -9999 -9999 -9999 -9999 -9999 -9999 -9999 -9999 -9999 -9999 -9999 -9999 -9999 -9999 -9999 -9999
-9999 -9999 2438.619384765625 2416.908447265625 2401.375 2385.6865234375 2366.00390625 2348.845703125 2328.616455078125 2313.537841796875 2299.55810546875 2290.411376953125 2291.182373046875 2298.012451171875 2320.1064453125 2317.095947265625 2317.45654296875 2301.309326171875 2300.07275390625 2303.125 2290.9501953125 2280.151611328125 2267.247802734375 2250.826904296875 2237.801513671875 2223.450927734375 2208.005615234375 2193.988525390625 2180.251220703125 2166.464599609375 2150.60546875 2139.34521484375 2127.984619140625 2118.38916015625 2107.2666015625 2096.0830078125 2090.0400390625 2077.61767578125 2060.139404296875 2046.650146484375 2032.0809326171875 2014.7694091796875 1995.82177734375 1975.1109619140625 1940.978271484375 1907.0849609375 1936.473388671875 1947.3984375 1923.8001708984375 1901.3272705078125 1860.374755859375 1823.3194580078125 1829.9927978515625 1829.0045166015625 1804.60693359375 1783.5064697265625 1776.702392578125 1798.864990234375 1779.7718505859375 1785.5196533203125 1785.59521484375 1772.412353515625 1748.08740234375 1730.074951171875 1721.4111328125 1710.7685546875 1698.1826171875 1691.5009765625 1684.2440185546875 1674.9208984375 1663.8182373046875 1650.4464111328125 1638.25390625 1624.21240234375 1612.580322265625 1601.53564453125 1589.246826171875 1574.7921142578125 1561.287841796875 1551.17333984375 1542.189208984375 1533.4820556640625 1525.7325439453125 1519.4169921875 1513.061767578125 1506.449462890625 1501.31494140625 1489.4488525390625 1478.37841796875 1468.0604248046875 1457.4178466796875 1446.55224609375 1439.8392333984375 1439.965087890625 -9999 -9999 -9999 -9999 -9999 -9999 -9999 -9999 -9999 -9999 -9999 -9999 -9999 -9999 -9999 -9999 -9999 -9999 -9999 -9999 -9999 -9999 -9999 -9999 -9999 -9999 -9999 -9999 -9999 -9999 -9999 -9999 -9999 -9999 -9999 -9999
-9999 -9999 2447.311279296875 2417.416015625 2403.40771484375 2384.42919921875 2366.17822265625 2347.174072265625 2331.491943359375 2317.1220703125 2302.0126953125 2282.23779296875 2276.694580078125 2274.478759765625 2287.681640625 2315.423828125 2311.598388671875 2295.94140625 2275.5908203125 2283.63720703125 2292.408203125 2282.842529296875 2273.60400390625 2260.18505859375 2246.673095703125 2232.372314453125 2218.292724609375 2206.04541015625 2192.6962890625 2175.843017578125 2159.45947265625 2146.866943359375 2133.2431640625 2118.252197265625 2105.350830078125 2095.85791015625 2080.520751953125 2071.22900390625 2057.658935546875 2041.5679931640625 2033.0142822265625 2021.66943359375 2006.336669921875 1981.01806640625 1943.8338623046875 1910.8126220703125 1887.4283447265625 1903.7493896484375 1899.088134765625 1871.286865234375 1839.0089111328125 1808.8560791015625 1797.5584716796875 1799.52880859375 1779.2364501953125 1770.6142578125 1762.54833984375 1761.010986328125 1756.1099853515625 1760.6011962890625 1756.1043701171875 1741.603271484375 1726.09765625 1714.840087890625 1706.3388671875 1698.714599609375 1691.18408203125 1680.110595703125 1672.1572265625 1663.9052734375 1655.1063232421875 1643.32421875 1630.3297119140625 1617.6461181640625 1606.5606689453125 1594.04248046875 1581.2877197265625 1568.323486328125 1555.4564208984375 1543.769775390625 1533.7333984375 1524.7755126953125 1515.0693359375 1506.25390625 1499.5679931640625 1492.8953857421875 1489.451171875 1482.5455322265625 1470.9359130859375 1459.158447265625 1449.05517578125 1439.24072265625 1433.5341796875 1433.53076171875 1430.524658203125 -9999 -9999 -9999 -9999 -9999 -9999 -9999 -9999 -9999 -9999 -9999 -9999 -9999 -9999 -9999 -9999 -9999 -9999 -9999 -9999 -9999 -9999 -9999 -9999 -9999 -9999 -9999 -9999 -9999 -9999 -9999 -9999 -9999 -9999 -9999
-9999 -9999 -9999 2415.7197265625 2398.361328125 2381.7998046875 2364.87890625 2347.476318359375 2332.6748046875 2319.3427734375 2302.398681640625 2280.4189453125 2260.9765625 2259.0419921875 2270.558349609375 2290.93359375 2291.041015625 2266.4775390625 2257.7958984375 2265.1298828125 2271.87060546875 2274.683837890625 2270.824951171875 2265.48681640625 2256.360107421875 2245.772216796875 2232.6064453125 2217.574462890625 2203.8505859375 2187.557373046875 2171.6904296875 2154.70458984375 2136.8759765625 2122.801513671875 2107.536376953125 2088.82177734375 2069.619384765625 2055.12939453125 2034.186279296875 2015.6197509765625 2002.2537841796875 1998.8868408203125 1994.11083984375 1959.170166015625 1937.1077880859375 1913.676025390625 1897.1754150390625 1867.928955078125 1836.2880859375 1842.293212890625 1836.8760986328125 1803.8616943359375 1787.31103515625 1772.1285400390625 1764.77392578125 1759.5921630859375 1749.068603515625 1746.3310546875 1741.3243408203125 1744.383056640625 1741.391845703125 1731.3001708984375 1717.7230224609375 1705.0206298828125 1695.0428466796875 1685.0877685546875 1679.817138671875 1671.9693603515625 1662.397705078125 1653.046630859375 1644.8543701171875 1636.0238037109375 1623.508056640625 1609.44775390625 1598.391845703125 1586.9127197265625 1576.42431640625 1564.027099609375 1552.045166015625 1540.289306640625 1528.8592529296875 1518.9473876953125 1509.935302734375 1497.59619140625 1489.1715087890625 1480.107421875 1475.4561767578125 1472.373779296875 1463.14990234375 1451.9122314453125 1440.695556640625 1431.498779296875 1424.017578125 1425.91796875 1422.7039794921875 1418.4766845703125 -9999 -9999 -9999 -9999 -9999 -9999 -9999 -9999 -9999 -9999 -9999 -9999 -9999 -9999 -9999 -9999 -9999 -9999 -9999 -9999 -9999 -9999 -9999 -9999 -9999 -9999 -9999 -9999 -9999 -9999 -9999 -9999 -9999 -9999
-9999 -9999 -9999 2417.667236328125 2402.643310546875 2384.926513671875 2367.502197265625 2351.503173828125 2337.24755859375 2321.7080078125 2300.078369140625 2283.15087890625 2263.71875 2242.223876953125 2251.109130859375 2266.14404296875 2253.956787109375 2256.52880859375 2240.3291015625 2247.595947265625 2248.20751953125 2244.25732421875 2242.378662109375 2245.12353515625 2252.605224609375 2248.593017578125 2237.0009765625 2218.491455078125 2203.922119140625 2196.460205078125 2184.2880859375 2164.567138671875 2147.30419921875 2131.62744140625 2114.69775390625 2098.091552734375 2086.1904296875 2073.624267578125 2054.451171875 2038.49365234375 2020.878662109375 1995.3433837890625 1957.5357666015625 1951.3428955078125 1942.957763671875 1916.2769775390625 1883.3349609375 1857.0169677734375 1827.9805908203125 1815.509033203125 1804.38134765625 1796.00537109375 1785.630615234375 1768.4683837890625 1751.7467041015625 1741.9560546875 1735.04248046875 1730.145751953125 1727.419189453125 1722.3743896484375 1729.1600341796875 1721.0267333984375 1713.263671875 1702.5517578125 1689.363037109375 1680.579345703125 1670.76513671875 1660.3638916015625 1653.057373046875 1642.8179931640625 1632.8682861328125 1625.3143310546875 1616.2874755859375 1604.4228515625 1589.598388671875 1578.5604248046875 1568.3402099609375 1558.7259521484375 1551.26220703125 1536.0234375 1522.8714599609375 1514.0301513671875 1503.646240234375 1493.4921875 1484.239990234375 1474.804443359375 1465.21728515625 1459.735595703125 1454.0623779296875 1443.4029541015625 1431.689697265625 1423.737060546875 1415.0899658203125 1419.9742431640625 1416.0172119140625 1411.180908203125 1406.7208251953125 -9999 -9999 -9999 -9999 -9999 -9999 -9999 -9999 -9999 -9999 -9999 -9999 -9999 -9999 -9999 -9999 -9999 -9999 -9999 -9999 -9999 -9999 -9999 -9999 -9999 -9999 -9999 -9999 -9999 -9999 -9999 -9999 -9999
-9999 -9999 -9999 2420.280517578125 2404.4482421875 2386.64501953125 2370.885009765625 2354.819091796875 2337.158447265625 2317.21142578125 2300.383056640625 2285.40087890625 2255.048828125 2226.912841796875 2232.49609375 2269.943603515625 2253.022705078125 2230.830322265625 2216.0927734375 2208.71484375 2221.116455078125 2223.092529296875 2223.53173828125 2231.51904296875 2232.3935546875 2236.94091796875 2222.207275390625 2209.720703125 2189.62841796875 2164.30419921875 2153.539306640625 2160.67138671875 2153.84912109375 2142.166015625 2118.531982421875 2091.974365234375 2090.780029296875 2083.572021484375 2060.232177734375 2043.6285400390625 2019.3212890625 2001.0958251953125 1978.882568359375 1965.215576171875 1924.1568603515625 1895.837646484375 1882.837158203125 1855.9171142578125 1830.229248046875 1815.6549072265625 1797.481689453125 1782.904052734375 1769.1973876953125 1754.3028564453125 1740.72998046875 1727.7171630859375 1721.1705322265625 1714.8642578125 1710.178955078125 1703.6724853515625 1713.6162109375 1710.7080078125 1705.5567626953125 1697.3719482421875 1686.4337158203125 1675.023681640625 1663.7647705078125 1650.5213623046875 1644.30322265625 1634.155517578125 1625.922119140625 1614.370849609375 1605.9503173828125 1595.092041015625 1585.2879638671875 1569.9609375 1559.610107421875 1549.0838623046875 1544.930419921875 1537.0306396484375 1521.4508056640625 1505.9073486328125 1496.4444580078125 1487.8592529296875 1477.5911865234375 1468.5091552734375 1459.1678466796875 1449.7713623046875 1443.17822265625 1435.758056640625 1424.10595703125 1415.4351806640625 1409.258544921875 1411.3551025390625 1408.6065673828125 1403.6622314453125 1399.86181640625 1401.189453125 1399.2203369140625 -9999 -9999 -9999 -9999 -9999 -9999 -9999 -9999 -9999 -9999 -9999 -9999 -9999 -9999 -9999 -9999 -9999 -9999 -9999 -9999 -9999 -9999 -9999 -9999 -9999 -9999 -9999 -9999 -9999 -9999 -9999
-9999 -9999 -9999 -9999 2403.47607421875 2387.11572265625 2374.6865234375 2360.457763671875 2338.7919921875 2315.88525390625 2298.9775390625 2276.123779296875 2245.3720703125 2217.612060546875 2211.849853515625 2244.538330078125 2248.78076171875 2230.379638671875 2211.065185546875 2194.82421875 2183.9931640625 2183.2333984375 2185.42626953125 2197.34521484375 2223.903564453125 2226.8037109375 2210.775390625 2194.468017578125 2178.835693359375 2163.9765625 2147.14453125 2128.529296875 2114.460693359375 2099.352294921875 2086.693115234375 2070.319091796875 2066.3427734375 2070.290283203125 2062.698974609375 2048.50439453125 2030.146484375 2009.683837890625 1982.837890625 1963.352783203125 1912.6005859375 1890.7998046875 1869.4215087890625 1850.6904296875 1838.6260986328125 1826.3699951171875 1806.86962890625 1792.486328125 1780.114013671875 1767.2310791015625 1753.55126953125 1737.16455078125 1717.384033203125 1701.12060546875 1693.9747314453125 1686.4212646484375 1682.281494140625 1694.720458984375 1693.6673583984375 1690.8466796875 1682.7330322265625 1671.46533203125 1662.3033447265625 1650.248046875 1642.035400390625 1627.453125 1615.21875 1604.9801025390625 1595.054443359375 1585.1611328125 1575.7060546875 1566.32861328125 1551.779296875 1542.04931640625 1530.1846923828125 1521.704833984375 1512.9561767578125 1503.115966796875 1489.8922119140625 1480.771240234375 1472.1915283203125 1462.4852294921875 1453.8427734375 1444.4788818359375 1434.4384765625 1424.5538330078125 1417.623291015625 1408.32666015625 1401.9224853515625 1399.9666748046875 1402.09033203125 1396.442626953125 1391.8150634765625 1390.4127197265625 1390.0013427734375 1383.5025634765625 -9999 -9999 -9999 -9999 -9999 -9999 -9999 -9999 -9999 -9999 -9999 -9999 -9999 -9999 -9999 -9999 -9999 -9999 -9999 -9999 -9999 -9999 -9999 -9999 -9999 -9999 -9999 -9999 -9999 -9999
-9999 -9999 -9999 -9999 2360.806884765625 2363.799560546875 2371.62060546875 2359.441650390625 2327.70654296875 2308.08935546875 2287.1826171875 2258.707763671875 2235.008544921875 2205.742431640625 2194.3017578125 2221.59814453125 2226.9375 2226.02197265625 2208.233154296875 2189.891845703125 2172.783203125 2160.70654296875 2158.531494140625 2173.083740234375 2188.779541015625 2200.28369140625 2212.20556640625 2197.28125 2189.120361328125 2173.142822265625 2155.736328125 2133.528564453125 2118.144775390625 2098.68212890625 2081.987060546875 2067.0361328125 2049.71435546875 2031.1654052734375 2035.2113037109375 2042.24267578125 2014.597412109375 1986.4349365234375 1951.5574951171875 1926.5548095703125 1906.626953125 1893.0634765625 1873.144287109375 1858.2244873046875 1847.4876708984375 1830.68017578125 1817.1365966796875 1804.7144775390625 1790.9503173828125 1778.2432861328125 1764.2421875 1744.3216552734375 1726.34375 1706.69775390625 1686.878173828125 1672.917236328125 1667.26513671875 1667.803955078125 1677.7890625 1679.6162109375 1673.002685546875 1666.527587890625 1657.4547119140625 1645.9134521484375 1633.0362548828125 1619.0194091796875 1608.08203125 1594.9754638671875 1588.1256103515625 1578.004150390625 1568.8262939453125 1557.753662109375 1547.2255859375 1535.93115234375 1523.523681640625 1512.0279541015625 1501.009521484375 1490.014404296875 1482.0732421875 1473.7813720703125 1465.6563720703125 1457.142822265625 1447.779541015625 1439.62890625 1429.84765625 1420.976318359375 1412.919921875 1402.4239501953125 1395.209228515625 1392.0714111328125 1394.93359375 1389.267333984375 1384.41259765625 1382.9615478515625 1380.857177734375 1375.9669189453125 1365.13037109375 -9999 -9999 -9999 -9999 -9999 -9999 -9999 -9999 -9999 -9999 -9999 -9999 -9999 -9999 -9999 -9999 -9999 -9999 -9999 -9999 -9999 -9999 -9999 -9999 -9999 -9999 -9999 -9999 -9999
-9999 -9999 -9999 -9999 2319.62744140625 2315.684326171875 2335.322265625 2353.680908203125 2330.681640625 2314.22998046875 2277.66650390625 2253.852783203125 2222.642578125 2201.478271484375 2182.84423828125 2181.19140625 2205.476806640625 2219.636962890625 2206.548828125 2190.467529296875 2174.019287109375 2157.17724609375 2139.717529296875 2132.7197265625 2137.691650390625 2158.09326171875 2155.549072265625 2133.716552734375 2139.219482421875 2144.15380859375 2142.265380859375 2136.49853515625 2123.9423828125 2106.928955078125 2091.81494140625 2073.093505859375 2048.437255859375 2034.6588134765625 2008.3424072265625 1996.7833251953125 1984.1669921875 1957.9903564453125 1941.5699462890625 1927.7850341796875 1912.18798828125 1899.8714599609375 1881.642333984375 1864.31689453125 1853.12109375 1842.4075927734375 1827.4617919921875 1815.8831787109375 1801.530029296875 1785.903564453125 1776.5294189453125 1755.3038330078125 1732.8394775390625 1714.04833984375 1690.959716796875 1668.080810546875 1654.714111328125 1646.9185791015625 1654.648193359375 1661.71875 1669.687255859375 1658.2762451171875 1651.0853271484375 1638.436279296875 1624.9598388671875 1611.158203125 1599.238037109375 1589.762451171875 1580.8065185546875 1571.9083251953125 1560.965087890625 1553.3546142578125 1542.4627685546875 1533.08056640625 1524.8016357421875 1511.561767578125 1497.7916259765625 1485.531494140625 1474.9451904296875 1464.1080322265625 1455.607666015625 1449.0694580078125 1441.9920654296875 1433.8533935546875 1424.76025390625 1415.6510009765625 1407.165771484375 1398.465087890625 1389.7244873046875 1382.971923828125 1387.8289794921875 1381.6129150390625 1377.7900390625 1375.8173828125 1372.9473876953125 1366.99462890625 1359.5244140625 1345.0657958984375 -9999 -9999 -9999 -9999 -9999 -9999 -9999 -9999 -9999 -9999 -9999 -9999 -9999 -9999 -9999 -9999 -9999 -9999 -9999 -9999 -9999 -9999 -9999 -9999 -9999 -9999 -9999 -9999
-9999 -9999 -9999 -9999 -9999 2298.220703125 2284.16162109375 2328.29248046875 2329.638916015625 2317.674072265625 2264.845947265625 2238.878662109375 2219.174072265625 2201.8525390625 2182.300537109375 2165.869873046875 2191.10205078125 2200.337646484375 2212.491455078125 2199.097900390625 2187.55126953125 2165.495849609375 2141.079833984375 2119.345458984375 2104.1767578125 2092.352783203125 2114.5693359375 2101.8095703125 2110.586181640625 2124.66650390625 2137.901123046875 2096.965576171875 2110.6640625 2103.6435546875 2085.19970703125 2065.749267578125 2051.463623046875 2030.2281494140625 1998.7293701171875 1983.0010986328125 1959.831787109375 1946.4571533203125 1936.3177490234375 1924.1783447265625 1911.8822021484375 1907.4652099609375 1895.537109375 1874.2410888671875 1861.3333740234375 1848.869873046875 1836.9874267578125 1824.71435546875 1812.578369140625 1797.557373046875 1782.0059814453125 1762.723388671875 1741.0234375 1712.3013916015625 1692.907470703125 1675.6251220703125 1651.7352294921875 1635.275146484375 1628.0321044921875 1642.5145263671875 1649.71533203125 1655.88330078125 1646.9403076171875 1633.862060546875 1618.73876953125 1603.8341064453125 1591.686279296875 1580.42724609375 1572.3642578125 1563.0372314453125 1553.962158203125 1544.870361328125 1536.0469970703125 1527.699951171875 1518.9874267578125 1511.285400390625 1503.5771484375 1490.8656005859375 1477.0711669921875 1463.759765625 1449.9254150390625 1440.5667724609375 1433.7266845703125 1427.6495361328125 1420.87939453125 1411.5284423828125 1402.5819091796875 1395.2738037109375 1382.718017578125 1375.740966796875 1381.937744140625 1375.539306640625 1371.7806396484375 1369.4403076171875 1368.298095703125 1359.2818603515625 1352.917236328125 1339.9393310546875 1326.243408203125 -9999 -9999 -9999 -9999 -9999 -9999 -9999 -9999 -9999 -9999 -9999 -9999 -9999 -9999 -9999 -9999 -9999 -9999 -9999 -9999 -9999 -9999 -9999 -9999 -9999 -9999 -9999
-9999 -9999 -9999 -9999 -9999 2279.344482421875 2272.455078125 2256.069091796875 2257.635009765625 2277.213623046875 2248.49951171875 2235.50390625 2219.4228515625 2203.415771484375 2178.155517578125 2153.72021484375 2167.607421875 2180.47021484375 2207.409912109375 2206.349365234375 2185.49365234375 2165.6181640625 2140.881103515625 2123.783447265625 2107.64794921875 2090.287841796875 2071.020751953125 2057.955078125 2085.570068359375 2074.623046875 2091.833740234375 2063.29296875 2089.356689453125 2076.180419921875 2062.939208984375 2029.4124755859375 2021.314453125 2006.870849609375 1980.221923828125 1973.331298828125 1960.5172119140625 1947.042236328125 1935.7755126953125 1923.560546875 1912.8707275390625 1907.2191162109375 1902.322509765625 1884.5596923828125 1870.8607177734375 1855.876708984375 1842.13037109375 1829.3153076171875 1816.2313232421875 1801.19091796875 1783.97802734375 1766.2525634765625 1737.4241943359375 1713.0491943359375 1690.2288818359375 1668.7313232421875 1648.3214111328125 1631.39599609375 1613.3863525390625 1615.4832763671875 1624.7445068359375 1630.4229736328125 1639.245849609375 1628.2508544921875 1612.6300048828125 1595.731201171875 1581.3377685546875 1570.53564453125 1559.532958984375 1551.8359375 1544.135986328125 1534.8551025390625 1527.396240234375 1519.505615234375 1512.16552734375 1504.63525390625 1497.197998046875 1490.9071044921875 1480.8118896484375 1467.919921875 1454.9132080078125 1439.455078125 1426.1070556640625 1417.5665283203125 1413.3916015625 1407.08544921875 1397.9443359375 1390.257080078125 1378.70068359375 1369.2650146484375 1376.1624755859375 1370.2623291015625 1365.183837890625 1361.217529296875 1360.8685302734375 1354.198974609375 1345.4739990234375 1334.8226318359375 1323.3143310546875 1312.0494384765625 -9999 -9999 -9999 -9999 -9999 -9999 -9999 -9999 -9999 -9999 -9999 -9999 -9999 -9999 -9999 -9999 -9999 -9999 -9999 -9999 -9999 -9999 -9999 -9999 -9999 -9999
-9999 -9999 -9999 -9999 -9999 2282.55517578125 2265.493896484375 2245.423828125 2231.39306640625 2221.127685546875 2217.198974609375 2227.65478515625 2207.8134765625 2207.099365234375 2182.58740234375 2144.81103515625 2153.1982421875 2169.237060546875 2184.010009765625 2182.319580078125 2173.781494140625 2156.778564453125 2141.6162109375 2126.373046875 2114.873046875 2094.377197265625 2079.61083984375 2061.32080078125 2035.46875 2025.3836669921875 2049.10986328125 2035.1937255859375 2053.1875 2042.1737060546875 2027.66259765625 2004.6995849609375 1994.3990478515625 1981.755126953125 1969.176513671875 1962.306396484375 1954.765869140625 1944.116943359375 1939.1793212890625 1927.240478515625 1913.0224609375 1904.8099365234375 1901.0576171875 1883.40234375 1864.9730224609375 1848.270263671875 1837.4228515625 1817.0743408203125 1809.97998046875 1796.4029541015625 1781.059326171875 1760.4078369140625 1741.51708984375 1726.9383544921875 1703.575439453125 1678.37353515625 1647.8203125 1626.917724609375 1612.0006103515625 1593.805419921875 1593.15478515625 1601.222412109375 1613.776123046875 1615.3355712890625 1600.5242919921875 1587.941650390625 1574.0572509765625 1556.685546875 1546.74365234375 1538.7222900390625 1535.1917724609375 1529.65185546875 1518.8363037109375 1510.544921875 1504.2103271484375 1498.12744140625 1488.6575927734375 1480.23486328125 1473.5130615234375 1463.460693359375 1450.893798828125 1441.9547119140625 1429.337158203125 1414.8692626953125 1404.8536376953125 1399.180419921875 1392.7933349609375 1386.0667724609375 1376.4283447265625 1363.8216552734375 1368.5166015625 1362.7874755859375 1358.2059326171875 1357.7313232421875 1350.934814453125 1347.59619140625 1340.0030517578125 1331.8089599609375 1322.1474609375 1311.7734375 1301.5015869140625 -9999 -9999 -9999 -9999 -9999 -9999 -9999 -9999 -9999 -9999 -9999 -9999 -9999 -9999 -9999 -9999 -9999 -9999 -9999 -9999 -9999 -9999 -9999 -9999 -9999
-9999 -9999 -9999 -9999 -9999 -9999 2269.438720703125 2250.85888671875 2232.6259765625 2215.332275390625 2198.15966796875 2183.260009765625 2162.9169921875 2149.275390625 2175.04248046875 2141.329345703125 2136.85986328125 2140.496337890625 2159.983154296875 2146.063232421875 2146.52783203125 2136.616455078125 2130.659423828125 2122.091064453125 2112.952392578125 2099.801025390625 2078.75634765625 2060.642578125 2043.8408203125 2029.417724609375 2003.7755126953125 1998.0609130859375 2014.2294921875 2016.432861328125 2015.1981201171875 1992.2271728515625 1985.4420166015625 1975.0313720703125 1961.0272216796875 1952.6282958984375 1945.6002197265625 1936.406494140625 1935.2691650390625 1932.32958984375 1916.0330810546875 1903.1607666015625 1892.7550048828125 1881.6893310546875 1863.43603515625 1846.664306640625 1829.8165283203125 1810.4373779296875 1792.3712158203125 1779.0191650390625 1769.5968017578125 1759.727294921875 1736.375244140625 1718.4698486328125 1694.310546875 1664.1593017578125 1645.115966796875 1627.461669921875 1611.23779296875 1596.142578125 1578.7117919921875 1568.661376953125 1586.466552734375 1591.6170654296875 1585.2266845703125 1573.4361572265625 1558.648681640625 1545.7705078125 1533.1490478515625 1524.962890625 1520.897216796875 1516.0069580078125 1506.9393310546875 1498.43408203125 1498.2750244140625 1492.6126708984375 1484.4320068359375 1472.481689453125 1462.3974609375 1455.4056396484375 1445.259521484375 1432.8709716796875 1424.7978515625 1416.050048828125 1403.2701416015625 1391.8358154296875 1385.2952880859375 1381.0284423828125 1372.5958251953125 1356.8067626953125 1361.8294677734375 1355.9027099609375 1352.16015625 1350.9671630859375 1348.8704833984375 1341.4190673828125 1334.7625732421875 1328.378662109375 1321.01220703125 1311.8828125 1302.1168212890625 1292.8006591796875 1288.9417724609375 -9999 -9999 -9999 -9999 -9999 -9999 -9999 -9999 -9999 -9999 -9999 -9999 -9999 -9999 -9999 -9999 -9999 -9999 -9999 -9999 -9999 -9999 -9999
-9999 -9999 -9999 -9999 -9999 -9999 2275.841064453125 2259.62646484375 2248.161865234375 2228.7509765625 2209.189697265625 2187.409423828125 2167.76904296875 2146.026611328125 2130.18017578125 2125.55029296875 2114.036376953125 2123.528564453125 2128.565673828125 2131.90576171875 2122.844970703125 2110.963134765625 2100.915283203125 2102.06396484375 2091.050048828125 2075.046875 2075.4296875 2060.781982421875 2044.716796875 2020.9510498046875 2000.941162109375 1985.5054931640625 1978.7166748046875 1992.4886474609375 1989.7198486328125 1979.69580078125 1972.887939453125 1962.7398681640625 1950.0950927734375 1944.1903076171875 1931.5196533203125 1928.386962890625 1928.4677734375 1923.279541015625 1913.83935546875 1902.596435546875 1892.188720703125 1879.31591796875 1863.376953125 1846.64599609375 1831.07080078125 1812.7608642578125 1793.9688720703125 1777.215576171875 1758.73974609375 1734.6783447265625 1729.731689453125 1709.5411376953125 1686.55126953125 1662.937744140625 1644.916748046875 1628.2236328125 1613.9637451171875 1596.061279296875 1581.0972900390625 1562.232421875 1554.101806640625 1555.156005859375 1569.91748046875 1559.26318359375 1546.0389404296875 1533.660400390625 1522.413818359375 1512.17578125 1505.2510986328125 1501.0980224609375 1494.197021484375 1484.6995849609375 1486.0635986328125 1485.5606689453125 1479.0509033203125 1467.710205078125 1455.9373779296875 1443.6378173828125 1436.0787353515625 1425.44091796875 1415.892333984375 1408.3955078125 1401.0184326171875 1391.2667236328125 1379.0687255859375 1372.4033203125 1365.8935546875 1353.8768310546875 1352.9949951171875 1350.7740478515625 1343.673828125 1346.820556640625 1344.0186767578125 1339.5418701171875 1333.31591796875 1325.971923828125 1316.865478515625 1307.9183349609375 1302.45068359375 1292.035400390625 1284.529541015625 1286.38720703125 -9999 -9999 -9999 -9999 -9999 -9999 -9999 -9999 -9999 -9999 -9999 -9999 -9999 -9999 -9999 -9999 -9999 -9999 -9999 -9999 -9999 -9999
-9999 -9999 -9999 -9999 -9999 -9999 -9999 2266.984130859375 2254.3408203125 2235.91455078125 2216.97216796875 2194.37646484375 2161.050048828125 2136.807373046875 2123.6162109375 2111.99462890625 2099.7939453125 2106.939697265625 2105.70361328125 2120.01123046875 2107.029296875 2107.74169921875 2091.43896484375 2079.2099609375 2083.25732421875 2063.668212890625 2051.09033203125 2038.388671875 2039.1109619140625 2010.26611328125 2001.8907470703125 1981.0849609375 1964.81689453125 1961.8896484375 1963.208251953125 1962.855224609375 1957.19921875 1951.1080322265625 1939.91357421875 1930.211181640625 1923.9046630859375 1913.9681396484375 1912.0296630859375 1907.4459228515625 1900.5728759765625 1891.6400146484375 1885.1077880859375 1874.446533203125 1861.4698486328125 1846.1170654296875 1830.817626953125 1814.735107421875 1800.34130859375 1782.9542236328125 1764.8546142578125 1740.8431396484375 1717.77783203125 1699.9359130859375 1680.2578125 1660.40673828125 1642.7508544921875 1626.3099365234375 1611.2799072265625 1596.1341552734375 1582.2301025390625 1564.6456298828125 1546.4444580078125 1539.9251708984375 1547.062744140625 1548.5697021484375 1533.6385498046875 1522.4901123046875 1511.915771484375 1501.5389404296875 1492.5565185546875 1484.6630859375 1479.6522216796875 1470.54150390625 1471.8983154296875 1471.125 1467.9365234375 1459.97998046875 1449.958984375 1439.4014892578125 1425.7142333984375 1417.0771484375 1407.5758056640625 1400.9063720703125 1394.322021484375 1386.936279296875 1379.8907470703125 1367.72021484375 1360.17236328125 1353.384521484375 1344.4735107421875 1340.91015625 1339.0208740234375 1346.2733154296875 1335.09716796875 1335.787841796875 1328.1751708984375 1321.508056640625 1315.150390625 1306.4013671875 1298.4803466796875 1291.88134765625 1283.2679443359375 1279.7135009765625 1278.5609130859375 -9999 -9999 -9999 -9999 -9999 -9999 -9999 -9999 -9999 -9999 -9999 -9999 -9999 -9999 -9999 -9999 -9999 -9999 -9999 -9999 -9999
-9999 -9999 -9999 -9999 -9999 -9999 -9999 -9999 2210.49560546875 2220.079833984375 2195.362060546875 2174.3544921875 2145.767578125 2127.1962890625 2116.230712890625 2101.843505859375 2090.523193359375 2086.91357421875 2089.163330078125 2087.779296875 2085.585693359375 2085.162109375 2090.91015625 2068.01708984375 2055.71484375 2066.455078125 2047.1927490234375 2022.7734375 2013.967529296875 1995.9306640625 1985.3460693359375 1975.8287353515625 1961.5345458984375 1945.2802734375 1945.1995849609375 1946.9439697265625 1943.4156494140625 1939.581787109375 1931.143798828125 1921.0439453125 1910.0574951171875 1903.152099609375 1893.9771728515625 1890.898193359375 1886.6885986328125 1881.5360107421875 1874.2235107421875 1863.66943359375 1851.3016357421875 1838.7152099609375 1825.0428466796875 1812.5372314453125 1800.5509033203125 1787.7325439453125 1771.3240966796875 1748.099853515625 1724.855224609375 1705.794189453125 1684.5660400390625 1663.9718017578125 1645.79638671875 1630.5751953125 1617.618408203125 1601.3446044921875 1584.058837890625 1562.986083984375 1546.1656494140625 1530.7489013671875 1532.325927734375 1530.9271240234375 1520.355712890625 1511.86767578125 1502.0621337890625 1492.185791015625 1482.711181640625 1475.02099609375 1466.2205810546875 1458.7340087890625 1456.1044921875 1457.6319580078125 1453.618896484375 1450.1119384765625 1441.270263671875 1431.031494140625 1420.4669189453125 1409.1005859375 1399.8583984375 1393.083740234375 1387.0216064453125 1380.3323974609375 1374.97119140625 1367.4757080078125 1354.6871337890625 1349.3033447265625 1338.9608154296875 1336.8284912109375 1334.6380615234375 1341.31591796875 1329.02294921875 1327.449462890625 1324.739990234375 1316.0972900390625 1308.4505615234375 1301.6051025390625 1293.697021484375 1288.361083984375 1283.2431640625 1278.054443359375 1273.92822265625 1273.327880859375 -9999 -9999 -9999 -9999 -9999 -9999 -9999 -9999 -9999 -9999 -9999 -9999 -9999 -9999 -9999 -9999 -9999 -9999 -9999 -9999
-9999 -9999 -9999 -9999 -9999 -9999 -9999 -9999 -9999 2186.256591796875 2162.025390625 2141.98046875 2127.903076171875 2119.162353515625 2107.360595703125 2094.933837890625 2076.287841796875 2065.78125 2072.337646484375 2065.944580078125 2071.19873046875 2062.388427734375 2069.417724609375 2063.98095703125 2040.7913818359375 2035.770263671875 2012.9178466796875 2000.580078125 1989.16259765625 1984.3775634765625 1971.8441162109375 1962.236083984375 1955.8358154296875 1944.4002685546875 1921.206298828125 1931.0821533203125 1928.4091796875 1927.41162109375 1922.06103515625 1911.2684326171875 1898.145751953125 1886.3818359375 1885.9449462890625 1865.84912109375 1861.735107421875 1863.166015625 1861.1961669921875 1851.125244140625 1839.65185546875 1829.2421875 1817.9061279296875 1808.5360107421875 1796.6114501953125 1780.2301025390625 1763.385498046875 1746.7274169921875 1724.9449462890625 1705.2440185546875 1680.1024169921875 1662.168212890625 1649.6517333984375 1634.706298828125 1617.6767578125 1600.562255859375 1590.1512451171875 1561.816162109375 1540.498046875 1525.041748046875 1519.4114990234375 1522.5242919921875 1512.5616455078125 1503.2584228515625 1494.2958984375 1484.255615234375 1474.362060546875 1464.4061279296875 1458.11669921875 1448.9498291015625 1442.726318359375 1442.3350830078125 1440.0732421875 1437.434814453125 1432.5845947265625 1423.1383056640625 1411.9052734375 1401.0914306640625 1392.162353515625 1385.436767578125 1380.3551025390625 1373.49853515625 1367.1357421875 1357.7818603515625 1348.8238525390625 1341.025146484375 1337.3170166015625 1330.7808837890625 1329.2529296875 1333.91064453125 1326.2215576171875 1319.297119140625 1316.913818359375 1311.199951171875 1302.3607177734375 1295.40625 1288.671630859375 1280.4969482421875 1280.8338623046875 1279.3055419921875 1271.869140625 1270.3436279296875 1273.0284423828125 -9999 -9999 -9999 -9999 -9999 -9999 -9999 -9999 -9999 -9999 -9999 -9999 -9999 -9999 -9999 -9999 -9999 -9999 -9999
-9999 -9999 -9999 -9999 -9999 -9999 -9999 -9999 -9999 -9999 2175.941162109375 2151.69775390625 2131.6181640625 2116.3876953125 2095.861328125 2082.044677734375 2071.863525390625 2058.2958984375 2050.258056640625 2051.13037109375 2046.17041015625 2046.82421875 2053.5244140625 2048.523193359375 2026.76904296875 2015.471435546875 2004.3656005859375 1990.9356689453125 1976.626220703125 1972.7655029296875 1962.44580078125 1948.04638671875 1945.97021484375 1936.2833251953125 1918.9619140625 1908.519775390625 1912.89599609375 1914.5140380859375 1910.704345703125 1905.3277587890625 1891.8720703125 1878.73779296875 1867.627685546875 1860.177734375 1842.614990234375 1826.1417236328125 1835.6959228515625 1837.4765625 1830.0037841796875 1819.67822265625 1810.143798828125 1800.1326904296875 1789.186767578125 1769.263427734375 1754.0115966796875 1737.6552734375 1719.37109375 1691.979736328125 1669.0556640625 1651.801513671875 1639.5941162109375 1629.4722900390625 1612.55908203125 1593.6429443359375 1575.853759765625 1555.9061279296875 1539.1783447265625 1523.3568115234375 1511.4998779296875 1509.6678466796875 1506.4078369140625 1497.5745849609375 1488.4317626953125 1479.2132568359375 1468.93115234375 1458.141845703125 1449.2161865234375 1441.255126953125 1432.4676513671875 1427.9813232421875 1425.69384765625 1423.4688720703125 1420.3099365234375 1412.371337890625 1402.59619140625 1393.56396484375 1384.9512939453125 1376.852294921875 1370.4593505859375 1364.6383056640625 1356.5870361328125 1347.760498046875 1340.913818359375 1334.4078369140625 1338.227294921875 1326.68310546875 1323.8919677734375 1322.9039306640625 1325.2640380859375 1313.661376953125 1311.0419921875 1307.816650390625 1300.6607666015625 1290.5047607421875 1282.6839599609375 1277.955322265625 1276.6217041015625 1275.3289794921875 1274.9664306640625 1275.427734375 1269.2318115234375 1267.617919921875 -9999 -9999 -9999 -9999 -9999 -9999 -9999 -9999 -9999 -9999 -9999 -9999 -9999 -9999 -9999 -9999 -9999 -9999
-9999 -9999 -9999 -9999 -9999 -9999 -9999 -9999 -9999 -9999 -9999 2142.472900390625 2121.066162109375 2118.109375 2087.011474609375 2076.515625 2062.65771484375 2055.136474609375 2036.817626953125 2033.5084228515625 2028.223876953125 2030.8773193359375 2035.6954345703125 2033.405029296875 2023.674560546875 2008.604736328125 1992.9652099609375 1980.7159423828125 1969.46142578125 1950.9500732421875 1955.8016357421875 1937.0601806640625 1924.2174072265625 1929.9478759765625 1916.079833984375 1894.5087890625 1896.44189453125 1900.5205078125 1896.8834228515625 1891.1324462890625 1883.2073974609375 1872.6300048828125 1861.969482421875 1845.99267578125 1831.4295654296875 1814.42626953125 1805.8143310546875 1822.7325439453125 1815.84765625 1808.4114990234375 1800.4239501953125 1789.5992431640625 1776.5107421875 1761.4459228515625 1745.0499267578125 1723.873046875 1701.34765625 1679.2060546875 1660.2823486328125 1641.0865478515625 1624.675048828125 1614.4381103515625 1602.392822265625 1586.4449462890625 1568.7266845703125 1549.3897705078125 1534.1337890625 1519.2529296875 1505.420166015625 1498.0843505859375 1499.8748779296875 1491.489501953125 1482.7056884765625 1475.7205810546875 1470.81396484375 1460.274169921875 1447.9266357421875 1434.5338134765625 1425.2711181640625 1415.51806640625 1411.836669921875 1409.543212890625 1404.60595703125 1396.808349609375 1392.0079345703125 1383.039794921875 1374.8248291015625 1368.296142578125 1361.588623046875 1354.7890625 1349.079833984375 1344.2457275390625 1338.129638671875 1329.8179931640625 1327.4359130859375 1322.8466796875 1319.23291015625 1316.980224609375 1324.57177734375 1310.73095703125 1303.83154296875 1304.3045654296875 1297.964599609375 1288.60302734375 1279.27685546875 1272.3388671875 1270.355712890625 1268.132568359375 1267.0596923828125 1266.8714599609375 1267.7939453125 1265.39013671875 1264.66455078125 1263.41552734375 -9999 -9999 -9999 -9999 -9999 -9999 -9999 -9999 -9999 -9999 -9999 -9999 -9999 -9999 -9999 -9999
-9999 -9999 -9999 -9999 -9999 -9999 -9999 -9999 -9999 -9999 -9999 -9999 2120.405517578125 2093.623291015625 2078.8447265625 2065.01806640625 2053.969482421875 2045.83740234375 2037.1663818359375 2016.9547119140625 2007.2987060546875 2014.994384765625 2020.1640625 2017.362548828125 2014.128662109375 2006.6915283203125 1992.100341796875 1976.9886474609375 1959.6627197265625 1942.1990966796875 1930.0059814453125 1926.843505859375 1907.741943359375 1915.7576904296875 1909.3404541015625 1890.880859375 1877.8218994140625 1881.8148193359375 1881.3809814453125 1874.5648193359375 1870.62548828125 1862.39111328125 1853.6851806640625 1844.7100830078125 1827.8248291015625 1807.6748046875 1789.4287109375 1806.5166015625 1795.66162109375 1784.0289306640625 1786.6109619140625 1775.7308349609375 1764.48828125 1751.0592041015625 1729.027099609375 1704.3345947265625 1688.40771484375 1672.98486328125 1653.0367431640625 1636.349365234375 1617.3040771484375 1598.7357177734375 1589.9459228515625 1574.7664794921875 1558.546875 1544.4166259765625 1528.525390625 1511.3226318359375 1502.6131591796875 1490.126220703125 1488.2969970703125 1484.02685546875 1476.6103515625 1468.41845703125 1463.5499267578125 1461.865234375 1448.9503173828125 1434.9564208984375 1420.7825927734375 1409.2169189453125 1401.8238525390625 1396.0260009765625 1390.048583984375 1381.9664306640625 1377.5921630859375 1375.283447265625 1367.960693359375 1358.0986328125 1349.9681396484375 1347.7125244140625 1344.2406005859375 1339.63525390625 1331.91357421875 1320.9581298828125 1318.7615966796875 1323.9437255859375 1314.2659912109375 1311.8197021484375 1314.2001953125 1310.7103271484375 1301.0552978515625 1298.0181884765625 1292.480712890625 1283.993896484375 1275.3109130859375 1269.822509765625 1267.7144775390625 1265.958984375 1264.586669921875 1263.427001953125 1264.6387939453125 1263.0560302734375 1261.4632568359375 1260.8692626953125 1259.0845947265625 -9999 -9999 -9999 -9999 -9999 -9999 -9999 -9999 -9999 -9999 -9999 -9999 -9999 -9999 -9999
-9999 -9999 -9999 -9999 -9999 -9999 -9999 -9999 -9999 -9999 -9999 -9999 -9999 -9999 2070.044677734375 2057.675048828125 2045.9085693359375 2034.490234375 2030.6629638671875 2018.185791015625 2007.5458984375 1996.074951171875 2004.8621826171875 2001.52001953125 2002.3328857421875 1996.678955078125 1989.1456298828125 1976.71630859375 1955.236328125 1937.7213134765625 1917.01025390625 1908.671875 1890.915771484375 1871.590576171875 1873.69140625 1887.23291015625 1868.4840087890625 1861.97216796875 1854.8660888671875 1852.670166015625 1854.3526611328125 1850.523681640625 1840.7655029296875 1826.7818603515625 1812.0751953125 1796.9237060546875 1773.5914306640625 1776.33740234375 1759.36376953125 1768.3135986328125 1770.0025634765625 1757.5203857421875 1743.092041015625 1719.610595703125 1703.30859375 1686.6431884765625 1672.027587890625 1657.230224609375 1638.7109375 1619.1531982421875 1601.185791015625 1589.3193359375 1574.7674560546875 1567.5670166015625 1555.138916015625 1539.3367919921875 1517.0361328125 1499.276123046875 1493.4537353515625 1486.474365234375 1476.673583984375 1477.8043212890625 1469.455078125 1462.1065673828125 1455.2183837890625 1454.5543212890625 1448.8023681640625 1435.2017822265625 1420.60009765625 1406.43017578125 1394.6851806640625 1385.9869384765625 1377.2034912109375 1372.0523681640625 1365.1824951171875 1360.299560546875 1354.3111572265625 1346.707763671875 1340.406494140625 1338.3240966796875 1335.0089111328125 1329.9696044921875 1321.2933349609375 1312.66259765625 1313.1114501953125 1318.4891357421875 1309.5048828125 1307.0609130859375 1304.84326171875 1311.03125 1300.005126953125 1294.778076171875 1290.271240234375 1282.721923828125 1276.136474609375 1271.8687744140625 1268.6138916015625 1265.826171875 1262.9022216796875 1261.512939453125 1261.8089599609375 1262.3502197265625 1260.1614990234375 1257.5592041015625 1256.4287109375 1254.6527099609375 -9999 -9999 -9999 -9999 -9999 -9999 -9999 -9999 -9999 -9999 -9999 -9999 -9999 -9999
-9999 -9999 -9999 -9999 -9999 -9999 -9999 -9999 -9999 -9999 -9999 -9999 -9999 -9999 -9999 2048.728271484375 2037.5225830078125 2025.87158203125 2014.6007080078125 2010.1776123046875 1999.4659423828125 1984.6026611328125 1978.0670166015625 1983.0228271484375 1982.2027587890625 1980.6348876953125 1976.45166015625 1967.13623046875 1956.9322509765625 1935.0751953125 1918.3843994140625 1900.773681640625 1879.6221923828125 1855.4755859375 1842.7945556640625 1837.16064453125 1856.8563232421875 1849.1534423828125 1832.910888671875 1830.3890380859375 1835.36474609375 1834.79541015625 1821.6378173828125 1813.3197021484375 1798.7481689453125 1783.53515625 1764.914794921875 1746.4498291015625 1731.0023193359375 1745.15869140625 1729.7781982421875 1705.9150390625 1706.89501953125 1695.6971435546875 1680.1314697265625 1661.292724609375 1649.2713623046875 1632.8321533203125 1622.1173095703125 1606.7939453125 1589.4072265625 1574.5810546875 1564.69921875 1554.986572265625 1547.0391845703125 1531.1875 1507.0634765625 1492.4818115234375 1481.2210693359375 1478.7293701171875 1470.8673095703125 1464.7215576171875 1461.671630859375 1454.5936279296875 1448.169677734375 1442.839599609375 1440.858642578125 1433.4384765625 1421.711669921875 1407.749755859375 1393.207275390625 1381.19140625 1369.7127685546875 1360.9786376953125 1353.8878173828125 1346.406005859375 1340.259033203125 1334.56884765625 1332.7099609375 1328.3917236328125 1320.396484375 1318.02880859375 1310.7078857421875 1306.571533203125 1307.3902587890625 1308.8289794921875 1308.8487548828125 1301.8919677734375 1299.3590087890625 1306.73876953125 1296.613525390625 1291.8779296875 1287.37890625 1282.7052001953125 1278.1324462890625 1273.886962890625 1270.189453125 1266.455078125 1262.3323974609375 1260.0174560546875 1259.78564453125 1259.6844482421875 1258.9912109375 1256.409423828125 1253.881591796875 1252.24462890625 1250.914306640625 -9999 -9999 -9999 -9999 -9999 -9999 -9999 -9999 -9999 -9999 -9999 -9999 -9999
-9999 -9999 -9999 -9999 -9999 -9999 -9999 -9999 -9999 -9999 -9999 -9999 -9999 -9999 -9999 -9999 2035.97119140625 2020.7255859375 2006.9129638671875 1995.365966796875 1986.5892333984375 1976.076904296875 1955.439453125 1955.8240966796875 1958.9947509765625 1962.482177734375 1963.1759033203125 1947.21337890625 1946.1885986328125 1928.4510498046875 1912.776123046875 1894.5699462890625 1878.2982177734375 1857.611083984375 1832.434814453125 1813.345458984375 1827.0177001953125 1827.69677734375 1830.275146484375 1811.140869140625 1817.47998046875 1814.8638916015625 1807.4932861328125 1793.5029296875 1788.661376953125 1769.4874267578125 1750.5335693359375 1735.5411376953125 1714.3631591796875 1713.995361328125 1697.1456298828125 1665.876220703125 1668.8775634765625 1665.28515625 1658.46337890625 1638.670654296875 1627.5430908203125 1616.76904296875 1606.837890625 1591.9061279296875 1577.822021484375 1563.6402587890625 1548.133544921875 1538.9271240234375 1533.4893798828125 1511.628173828125 1496.2374267578125 1481.44384765625 1471.044921875 1468.4085693359375 1466.0543212890625 1456.549560546875 1454.515869140625 1447.145751953125 1440.9166259765625 1435.2774658203125 1431.2059326171875 1424.743896484375 1417.232666015625 1408.7723388671875 1397.526123046875 1382.9281005859375 1368.143798828125 1355.676513671875 1346.5523681640625 1338.0396728515625 1328.765380859375 1324.425537109375 1322.0977783203125 1315.1446533203125 1306.858642578125 1301.9376220703125 1299.62841796875 1300.4730224609375 1300.9759521484375 1301.2904052734375 1309.8817138671875 1297.3087158203125 1294.390869140625 1296.7620849609375 1295.158447265625 1288.565673828125 1284.92919921875 1282.14990234375 1277.4256591796875 1273.4517822265625 1269.8934326171875 1266.2723388671875 1262.351806640625 1258.8175048828125 1257.080078125 1257.04833984375 1255.07666015625 1253.48095703125 1251.655517578125 1250.09716796875 1248.6328125 1247.7626953125 -9999 -9999 -9999 -9999 -9999 -9999 -9999 -9999 -9999 -9999 -9999 -9999
-9999 -9999 -9999 -9999 -9999 -9999 -9999 -9999 -9999 -9999 -9999 -9999 -9999 -9999 -9999 -9999 -9999 2024.24755859375 2007.5587158203125 1990.76416015625 1974.190673828125 1963.1131591796875 1949.79150390625 1934.7996826171875 1934.166748046875 1937.6934814453125 1947.02783203125 1925.9901123046875 1926.2254638671875 1918.9715576171875 1903.1802978515625 1887.878662109375 1872.647216796875 1851.2230224609375 1827.7462158203125 1805.1845703125 1800.347412109375 1800.09326171875 1804.0224609375 1806.6221923828125 1788.816162109375 1791.96435546875 1795.64501953125 1776.2396240234375 1754.592041015625 1748.962890625 1734.7855224609375 1715.7520751953125 1698.3983154296875 1681.9483642578125 1666.81201171875 1645.2733154296875 1635.8609619140625 1637.046142578125 1620.8990478515625 1616.1612548828125 1604.477783203125 1591.3253173828125 1584.7115478515625 1572.9029541015625 1565.4429931640625 1555.282958984375 1540.45849609375 1524.3065185546875 1509.43505859375 1497.4337158203125 1487.518798828125 1471.9261474609375 1460.2491455078125 1459.9791259765625 1457.1143798828125 1452.8095703125 1441.6956787109375 1440.4764404296875 1433.5087890625 1427.3924560546875 1422.37109375 1417.1014404296875 1409.5113525390625 1400.5908203125 1392.4091796875 1381.4456787109375 1369.0782470703125 1354.2208251953125 1341.153076171875 1332.3681640625 1323.2349853515625 1315.182861328125 1307.93505859375 1301.237060546875 1295.4725341796875 1292.92138671875 1293.3564453125 1295.5479736328125 1296.9215087890625 1295.0321044921875 1302.744873046875 1296.2095947265625 1290.240478515625 1288.5653076171875 1295.810546875 1284.3843994140625 1281.6123046875 1278.8389892578125 1275.478271484375 1271.579345703125 1267.66748046875 1264.370361328125 1260.83203125 1258.2864990234375 1255.89892578125 1254.22900390625 1252.217041015625 1250.7791748046875 1248.8360595703125 1247.222412109375 1246.017822265625 1245.4840087890625 1244.989990234375 -9999 -9999 -9999 -9999 -9999 -9999 -9999 -9999 -9999 -9999 -9999
-9999 -9999 -9999 -9999 -9999 -9999 -9999 -9999 -9999 -9999 -9999 -9999 -9999 -9999 -9999 -9999 -9999 -9999 2005.487548828125 1991.8143310546875 1975.817626953125 1961.7967529296875 1947.564453125 1933.568115234375 1916.891845703125 1915.4215087890625 1909.218994140625 1908.84716796875 1896.5050048828125 1897.4561767578125 1892.963623046875 1876.280029296875 1856.764404296875 1837.0167236328125 1817.949462890625 1797.3341064453125 1775.33984375 1774.6837158203125 1772.86083984375 1776.5914306640625 1778.7239990234375 1749.1656494140625 1769.296630859375 1760.998779296875 1737.6978759765625 1721.260986328125 1706.79052734375 1701.152587890625 1686.483154296875 1663.515625 1650.1859130859375 1631.380126953125 1617.9136962890625 1610.525390625 1600.2451171875 1593.2923583984375 1581.0164794921875 1571.098876953125 1567.6270751953125 1558.1868896484375 1551.951416015625 1544.3951416015625 1535.993896484375 1523.1527099609375 1507.681884765625 1493.5469970703125 1479.3919677734375 1467.46728515625 1453.399658203125 1448.790283203125 1448.3856201171875 1444.7462158203125 1437.4981689453125 1431.5152587890625 1426.797607421875 1419.5037841796875 1414.6170654296875 1406.66943359375 1399.784912109375 1391.7772216796875 1382.519775390625 1371.9859619140625 1361.18408203125 1350.793212890625 1336.8521728515625 1325.876708984375 1318.1375732421875 1310.5272216796875 1302.1904296875 1294.4686279296875 1289.6968994140625 1288.638671875 1290.07470703125 1290.660400390625 1292.415283203125 1290.7083740234375 1292.9342041015625 1299.357421875 1286.4849853515625 1284.58203125 1291.702392578125 1281.5732421875 1278.83154296875 1276.2196044921875 1273.15283203125 1269.6575927734375 1266.3812255859375 1262.787841796875 1259.32275390625 1256.5908203125 1254.2462158203125 1252.956787109375 1251.3851318359375 1249.224365234375 1247.1455078125 1245.147216796875 1243.9501953125 1243.23193359375 1243.1483154296875 1241.4517822265625 1239.513427734375 -9999 -9999 -9999 -9999 -9999 -9999 -9999 -9999 -9999
-9999 -9999 -9999 -9999 -9999 -9999 -9999 -9999 -9999 -9999 -9999 -9999 -9999 -9999 -9999 -9999 -9999 -9999 -9999 1991.63671875 1979.341064453125 1967.04638671875 1951.9697265625 1933.569580078125 1915.9176025390625 1899.9619140625 1893.20703125 1885.1998291015625 1877.4986572265625 1872.7547607421875 1878.73779296875 1869.180908203125 1853.810546875 1830.443359375 1808.709716796875 1788.446533203125 1765.6915283203125 1747.7047119140625 1747.9012451171875 1744.7685546875 1741.969970703125 1741.2886962890625 1724.7364501953125 1723.1529541015625 1723.0023193359375 1704.2279052734375 1686.7728271484375 1667.9710693359375 1657.047607421875 1642.250244140625 1633.529296875 1617.13818359375 1601.9932861328125 1596.71630859375 1586.868896484375 1574.7056884765625 1564.291015625 1554.64501953125 1547.6947021484375 1540.7156982421875 1532.2333984375 1528.8834228515625 1522.556640625 1515.446533203125 1505.885009765625 1491.16455078125 1475.0811767578125 1460.1934814453125 1444.749267578125 1438.2384033203125 1438.7989501953125 1436.250732421875 1431.230224609375 1422.9154052734375 1420.52978515625 1412.579833984375 1405.60107421875 1398.312744140625 1388.91796875 1380.508056640625 1371.3876953125 1361.6517333984375 1350.3109130859375 1339.469482421875 1331.3814697265625 1322.4053955078125 1313.58251953125 1305.9091796875 1298.51806640625 1290.9454345703125 1286.3148193359375 1285.8536376953125 1286.8929443359375 1287.51220703125 1286.32861328125 1286.5494384765625 1286.978759765625 1290.291748046875 1285.8387451171875 1280.23291015625 1282.5240478515625 1281.18310546875 1275.5382080078125 1271.9884033203125 1270.53173828125 1268.145263671875 1265.2786865234375 1261.9700927734375 1258.3643798828125 1255.6905517578125 1253.3046875 1251.2081298828125 1249.4339599609375 1248.0130615234375 1245.7745361328125 1244.250244140625 1242.9239501953125 1241.484375 1240.0245361328125 1239.740234375 1238.3060302734375 1237.8675537109375 -9999 -9999 -9999 -9999 -9999 -9999 -9999 -9999
-9999 -9999 -9999 -9999 -9999 -9999 -9999 -9999 -9999 -9999 -9999 -9999 -9999 -9999 -9999 -9999 -9999 -9999 -9999 -9999 1976.462646484375 1967.970458984375 1949.337158203125 1934.1329345703125 1918.233642578125 1904.6982421875 1891.7879638671875 1875.4000244140625 1861.8375244140625 1853.468017578125 1855.2886962890625 1854.0755615234375 1838.9588623046875 1820.317138671875 1801.9439697265625 1782.6026611328125 1761.6065673828125 1741.477783203125 1722.6090087890625 1717.9251708984375 1709.0506591796875 1721.3026123046875 1721.8077392578125 1707.0609130859375 1698.7989501953125 1684.4166259765625 1671.9892578125 1658.86376953125 1649.8289794921875 1634.4853515625 1616.586669921875 1601.0704345703125 1591.69775390625 1581.0223388671875 1572.8876953125 1563.0023193359375 1551.8218994140625 1544.3880615234375 1534.180419921875 1526.4976806640625 1522.4451904296875 1511.2088623046875 1504.6278076171875 1498.182373046875 1494.8809814453125 1482.7369384765625 1467.1435546875 1453.3455810546875 1439.3057861328125 1429.7213134765625 1429.5167236328125 1427.5419921875 1422.3143310546875 1419.5068359375 1410.7978515625 1407.8125 1399.0743408203125 1391.5250244140625 1382.839111328125 1373.1055908203125 1362.875 1351.575927734375 1340.7530517578125 1332.7877197265625 1324.8355712890625 1317.1697998046875 1310.044677734375 1303.2667236328125 1295.8887939453125 1288.4842529296875 1283.5845947265625 1283.507080078125 1283.214111328125 1282.7601318359375 1282.436767578125 1282.5855712890625 1282.767578125 1282.5269775390625 1288.177734375 1276.4239501953125 1274.8935546875 1282.0145263671875 1271.822021484375 1268.8125 1267.1868896484375 1264.395263671875 1262.5712890625 1259.7335205078125 1257.29345703125 1254.548095703125 1252.71923828125 1249.85205078125 1247.9853515625 1246.5419921875 1244.55224609375 1242.5548095703125 1241.36376953125 1239.8184814453125 1239.2431640625 1238.2574462890625 1238.1719970703125 1236.8333740234375 1236.830078125 -9999 -9999 -9999 -9999 -9999 -9999 -9999
-9999 -9999 -9999 -9999 -9999 -9999 -9999 -9999 -9999 -9999 -9999 -9999 -9999 -9999 -9999 -9999 -9999 -9999 -9999 -9999 -9999 -9999 1926.275634765625 1925.5545654296875 1915.83349609375 1905.80029296875 1897.5489501953125 1882.1719970703125 1871.0123291015625 1854.7918701171875 1833.2283935546875 1841.6610107421875 1831.671875 1818.3641357421875 1802.2117919921875 1785.841796875 1764.8985595703125 1747.5782470703125 1729.0911865234375 1706.803955078125 1691.4102783203125 1686.0316162109375 1688.316650390625 1699.5133056640625 1683.059814453125 1667.5399169921875 1649.444091796875 1648.07958984375 1643.5318603515625 1630.8607177734375 1610.56689453125 1591.234130859375 1578.644287109375 1568.321533203125 1560.8385009765625 1550.6702880859375 1540.237060546875 1526.8699951171875 1525.152099609375 1514.97265625 1510.0733642578125 1501.8287353515625 1490.3560791015625 1483.3824462890625 1481.1602783203125 1473.1380615234375 1461.4205322265625 1447.5894775390625 1434.33935546875 1421.5540771484375 1419.9090576171875 1418.3421630859375 1413.4122314453125 1409.7659912109375 1406.6929931640625 1399.2684326171875 1392.46826171875 1385.5589599609375 1377.9200439453125 1369.733154296875 1360.5592041015625 1351.1497802734375 1341.7232666015625 1331.7618408203125 1322.1070556640625 1314.223388671875 1307.3448486328125 1301.038818359375 1294.4302978515625 1287.862060546875 1282.644287109375 1281.567626953125 1280.0096435546875 1279.908447265625 1280.0389404296875 1279.487548828125 1278.3468017578125 1276.94775390625 1278.490966796875 1279.32568359375 1271.3421630859375 1278.08740234375 1269.8271484375 1265.6558837890625 1263.7786865234375 1261.33642578125 1258.6064453125 1256.9879150390625 1254.49951171875 1253.3284912109375 1249.979248046875 1249.035888671875 1246.8958740234375 1244.92041015625 1243.6080322265625 1241.7574462890625 1239.99169921875 1239.0897216796875 1238.63916015625 1237.694091796875 1237.4647216796875 1236.9512939453125 1236.7667236328125 1236.1080322265625 -9999 -9999 -9999 -9999 -9999 -9999
-9999 -9999 -9999 -9999 -9999 -9999 -9999 -9999 -9999 -9999 -9999 -9999 -9999 -9999 -9999 -9999 -9999 -9999 -9999 -9999 -9999 -9999 -9999 1907.2015380859375 1904.3997802734375 1899.302001953125 1889.425537109375 1874.5789794921875 1871.9365234375 1856.4200439453125 1834.537353515625 1814.3656005859375 1816.2972412109375 1809.1494140625 1796.8109130859375 1780.8189697265625 1765.4945068359375 1754.199462890625 1731.693115234375 1708.70166015625 1688.6815185546875 1668.594970703125 1652.2431640625 1668.20166015625 1680.066650390625 1663.8807373046875 1645.6500244140625 1630.6470947265625 1626.85107421875 1616.2230224609375 1602.54833984375 1579.9879150390625 1564.1519775390625 1554.2032470703125 1548.540771484375 1540.2265625 1528.334716796875 1517.4256591796875 1506.8531494140625 1495.8238525390625 1490.2562255859375 1485.7650146484375 1476.90380859375 1465.7236328125 1466.06396484375 1464.6402587890625 1453.10302734375 1440.8720703125 1428.386474609375 1415.4105224609375 1410.56396484375 1408.8360595703125 1403.75830078125 1401.5069580078125 1397.8175048828125 1393.550048828125 1387.541015625 1379.8653564453125 1372.859619140625 1364.2742919921875 1355.62890625 1347.5615234375 1338.9552001953125 1330.769775390625 1323.8026123046875 1315.6602783203125 1307.14697265625 1301.71875 1292.828369140625 1287.3927001953125 1283.70849609375 1281.1617431640625 1277.2645263671875 1275.980224609375 1275.1800537109375 1274.8836669921875 1274.338623046875 1272.7313232421875 1272.1044921875 1273.3912353515625 1268.96142578125 1269.2381591796875 1267.6026611328125 1262.6341552734375 1260.9764404296875 1258.7066650390625 1256.2303466796875 1253.9765625 1252.2320556640625 1251.0028076171875 1249.6187744140625 1247.2491455078125 1245.101318359375 1243.816162109375 1242.630615234375 1240.64453125 1239.4453125 1238.9217529296875 1238.2108154296875 1237.4656982421875 1237.3580322265625 1236.637451171875 1236.4676513671875 1236.021484375 1236.109130859375 -9999 -9999 -9999 -9999 -9999
-9999 -9999 -9999 -9999 -9999 -9999 -9999 -9999 -9999 -9999 -9999 -9999 -9999 -9999 -9999 -9999 -9999 -9999 -9999 -9999 -9999 -9999 -9999 -9999 1892.9141845703125 1881.221435546875 1869.1953125 1867.42333984375 1853.88427734375 1843.2310791015625 1829.227294921875 1806.037353515625 1781.8546142578125 1779.8262939453125 1771.057861328125 1754.680908203125 1748.738525390625 1737.4130859375 1731.885009765625 1712.2843017578125 1693.1256103515625 1676.5732421875 1651.84228515625 1630.4632568359375 1646.630859375 1658.0946044921875 1642.842041015625 1629.9583740234375 1612.2545166015625 1599.5201416015625 1586.9132080078125 1570.756591796875 1552.4305419921875 1540.8359375 1536.1519775390625 1530.273193359375 1520.0341796875 1507.939208984375 1497.095947265625 1487.203369140625 1474.185302734375 1466.838623046875 1459.8197021484375 1454.121337890625 1448.07373046875 1453.438720703125 1445.8912353515625 1433.925048828125 1423.2379150390625 1410.150634765625 1401.9898681640625 1399.6876220703125 1394.3818359375 1392.0247802734375 1390.43115234375 1385.4669189453125 1380.34033203125 1374.5732421875 1367.1895751953125 1360.9166259765625 1352.1295166015625 1343.787109375 1335.8909912109375 1327.3994140625 1320.3155517578125 1311.3826904296875 1304.3240966796875 1298.025634765625 1292.773193359375 1288.485595703125 1283.6134033203125 1279.4913330078125 1274.56005859375 1273.0020751953125 1272.05615234375 1271.375 1270.330810546875 1269.1190185546875 1267.7965087890625 1266.9537353515625 1271.4483642578125 1262.4468994140625 1265.56005859375 1259.7156982421875 1258.368408203125 1256.4122314453125 1254.1082763671875 1251.5411376953125 1250.1622314453125 1247.6220703125 1247.2745361328125 1245.7001953125 1243.767822265625 1242.3885498046875 1241.1654052734375 1240.0213623046875 1239.2525634765625 1238.6688232421875 1237.646484375 1237.3294677734375 1236.43603515625 1236.606201171875 1236.1798095703125 1235.9765625 1235.6427001953125 1235.481689453125 -9999 -9999 -9999 -9999
-9999 -9999 -9999 -9999 -9999 -9999 -9999 -9999 -9999 -9999 -9999 -9999 -9999 -9999 -9999 -9999 -9999 -9999 -9999 -9999 -9999 -9999 -9999 -9999 -9999 1871.9224853515625 1860.1954345703125 1849.27001953125 1841.118408203125 1835.1805419921875 1821.914794921875 1807.6207275390625 1791.579833984375 1776.45458984375 1764.2569580078125 1750.75048828125 1735.0814208984375 1716.1273193359375 1705.6971435546875 1699.649169921875 1696.99072265625 1676.7696533203125 1652.5740966796875 1635.0311279296875 1609.1468505859375 1623.664794921875 1633.1983642578125 1618.4200439453125 1603.4696044921875 1572.942138671875 1562.8863525390625 1548.359375 1533.009033203125 1526.7303466796875 1519.8675537109375 1517.4071044921875 1512.761962890625 1500.62353515625 1489.0439453125 1477.90673828125 1468.0931396484375 1456.132080078125 1448.4136962890625 1441.204345703125 1432.437255859375 1438.5086669921875 1436.80224609375 1427.8465576171875 1415.6632080078125 1407.0557861328125 1394.9437255859375 1391.2459716796875 1385.8438720703125 1382.705322265625 1381.2760009765625 1377.758056640625 1372.72119140625 1368.521484375 1361.791748046875 1355.736083984375 1349.1439208984375 1339.569580078125 1332.2413330078125 1326.351806640625 1316.945556640625 1309.0501708984375 1301.4759521484375 1295.08251953125 1290.047119140625 1284.362060546875 1280.0184326171875 1276.904296875 1272.6365966796875 1269.94775390625 1268.504150390625 1267.8563232421875 1267.4180908203125 1266.109130859375 1264.642578125 1262.8978271484375 1263.1241455078125 1259.8558349609375 1264.0926513671875 1257.2613525390625 1255.5184326171875 1253.9158935546875 1252.322998046875 1250.605224609375 1248.126220703125 1245.7691650390625 1244.4520263671875 1243.4022216796875 1242.2701416015625 1241.3385009765625 1240.3214111328125 1239.275146484375 1238.7255859375 1237.994873046875 1236.75244140625 1236.9813232421875 1236.4395751953125 1236.0982666015625 1236.2117919921875 1241.394775390625 1242.618896484375 1236.6767578125 1234.3206787109375 1234.0517578125 -9999 -9999
-9999 -9999 -9999 -9999 -9999 -9999 -9999 -9999 -9999 -9999 -9999 -9999 -9999 -9999 -9999 -9999 -9999 -9999 -9999 -9999 -9999 -9999 -9999 -9999 -9999 -9999 1851.2467041015625 1840.6663818359375 1835.0028076171875 1817.206787109375 1806.692626953125 1800.74755859375 1785.855224609375 1762.8587646484375 1761.2435302734375 1759.0413818359375 1745.942138671875 1731.5926513671875 1721.0269775390625 1698.8837890625 1681.0382080078125 1672.4390869140625 1648.3043212890625 1628.5208740234375 1607.0506591796875 1586.822021484375 1606.003662109375 1597.316650390625 1588.7337646484375 1560.927001953125 1539.43115234375 1527.2109375 1515.7139892578125 1510.8270263671875 1506.9913330078125 1503.9952392578125 1503.775146484375 1499.3963623046875 1485.19873046875 1471.1822509765625 1460.017822265625 1449.717529296875 1439.064697265625 1431.32080078125 1423.4326171875 1423.1669921875 1422.2899169921875 1419.156494140625 1409.124267578125 1396.710693359375 1388.663330078125 1382.6207275390625 1379.23046875 1373.5797119140625 1370.774658203125 1369.746826171875 1364.449951171875 1360.2249755859375 1356.134521484375 1348.6776123046875 1345.220458984375 1339.291748046875 1330.0047607421875 1321.22216796875 1315.2874755859375 1307.4078369140625 1299.755126953125 1292.596923828125 1286.619384765625 1281.4483642578125 1278.2476806640625 1273.9229736328125 1270.4107666015625 1266.79638671875 1265.807861328125 1264.6158447265625 1264.6121826171875 1263.4019775390625 1262.2862548828125 1259.25830078125 1258.5904541015625 1260.988525390625 1255.052490234375 1254.962158203125 1252.5792236328125 1251.153564453125 1249.9639892578125 1249.4012451171875 1246.6707763671875 1245.197998046875 1243.6563720703125 1242.266357421875 1241.05615234375 1240.5098876953125 1239.7977294921875 1238.779052734375 1237.7255859375 1237.514892578125 1237.28857421875 1236.69091796875 1236.1600341796875 1238.4359130859375 1243.38671875 1236.3497314453125 1234.688720703125 1235.19970703125 1237.689453125 1239.09814453125 1242.98046875 -9999
-9999 -9999 -9999 -9999 -9999 -9999 -9999 -9999 -9999 -9999 -9999 -9999 -9999 -9999 -9999 -9999 -9999 -9999 -9999 -9999 -9999 -9999 -9999 -9999 -9999 -9999 -9999 1826.712890625 1814.8199462890625 1807.94287109375 1787.6187744140625 1775.0826416015625 1764.2261962890625 1757.997314453125 1734.9805908203125 1734.5791015625 1734.4869384765625 1727.2679443359375 1718.5843505859375 1703.2615966796875 1683.6435546875 1662.766357421875 1634.494384765625 1597.5255126953125 1586.3641357421875 1572.1964111328125 1579.0987548828125 1582.699951171875 1567.1141357421875 1550.38037109375 1532.970947265625 1517.57080078125 1503.9364013671875 1498.3154296875 1493.6925048828125 1491.0870361328125 1487.868896484375 1490.3017578125 1481.8427734375 1467.3538818359375 1453.5245361328125 1442.194580078125 1432.4423828125 1424.276123046875 1415.7958984375 1407.022216796875 1406.444580078125 1405.77783203125 1399.629638671875 1389.484130859375 1377.7921142578125 1371.7135009765625 1371.1617431640625 1368.048095703125 1362.810302734375 1360.6290283203125 1357.447021484375 1352.4853515625 1347.4818115234375 1345.421875 1337.784423828125 1332.919921875 1327.843017578125 1319.8338623046875 1310.4110107421875 1305.1588134765625 1298.56005859375 1291.671630859375 1284.877685546875 1279.72900390625 1274.634765625 1270.884521484375 1268.083251953125 1265.1312255859375 1263.4468994140625 1261.6441650390625 1260.38818359375 1259.1829833984375 1257.9486083984375 1256.7801513671875 1254.8916015625 1254.6702880859375 1253.984130859375 1253.25048828125 1249.716064453125 1248.34033203125 1247.25146484375 1245.6448974609375 1245.7626953125 1243.8544921875 1242.49365234375 1241.1314697265625 1239.9365234375 1238.8475341796875 1238.092529296875 1238.0057373046875 1237.9796142578125 1237.8544921875 1236.8184814453125 1237.096435546875 1243.0091552734375 1239.4061279296875 1235.1021728515625 1235.64501953125 1239.57861328125 1241.2598876953125 1245.694580078125 1245.3636474609375 1251.850341796875 1255.4422607421875
-9999 -9999 -9999 -9999 -9999 -9999 -9999 -9999 -9999 -9999 -9999 -9999 -9999 -9999 -9999 -9999 -9999 -9999 -9999 -9999 -9999 -9999 -9999 -9999 -9999 -9999 -9999 -9999 -9999 1789.474853515625 1776.4388427734375 1767.616943359375 1754.818603515625 1737.569580078125 1723.9263916015625 1709.7381591796875 1711.6993408203125 1708.103515625 1690.806396484375 1683.725830078125 1676.0628662109375 1660.1507568359375 1632.81884765625 1603.5262451171875 1584.2703857421875 1565.9005126953125 1551.9967041015625 1564.984619140625 1556.6575927734375 1543.102783203125 1526.785400390625 1508.661865234375 1497.6214599609375 1485.087158203125 1481.6248779296875 1479.55859375 1474.1439208984375 1474.4010009765625 1474.974853515625 1465.3890380859375 1450.8465576171875 1436.05224609375 1425.14111328125 1416.725341796875 1408.367919921875 1398.239013671875 1392.395751953125 1390.561767578125 1389.5653076171875 1379.583251953125 1369.52001953125 1361.7786865234375 1362.270751953125 1360.958251953125 1356.85009765625 1351.850341796875 1349.8665771484375 1344.513427734375 1340.2626953125 1336.4510498046875 1334.87548828125 1326.4925537109375 1321.739501953125 1316.9666748046875 1311.012451171875 1301.16455078125 1294.9490966796875 1289.7904052734375 1283.2232666015625 1277.3387451171875 1272.974609375 1269.0751953125 1266.3570556640625 1263.4288330078125 1259.67626953125 1258.2890625 1257.236083984375 1256.2744140625 1254.76953125 1253.4580078125 1252.1065673828125 1250.574462890625 1250.3795166015625 1248.3245849609375 1247.1060791015625 1245.8778076171875 1244.4691162109375 1243.556396484375 1243.0238037109375 1242.5252685546875 1240.9993896484375 1239.7005615234375 1238.88525390625 1238.274169921875 1238.2635498046875 1238.1949462890625 1237.696044921875 1237.4212646484375 1240.4456787109375 1242.0975341796875 1235.8076171875 1235.384033203125 1237.7628173828125 1237.435546875 1237.667724609375 1245.2371826171875 1250.3426513671875 1252.2657470703125 1258.12646484375 -9999
